1.5157895,1.5157895,1.5157895,1.5157895,1.5157895,1.5157895,1.5157895,1.5157895,1.5157895,1.5157895,1.6457143,1.6457143,0.0,1.9862069,0.0,0.0,0.0,0.0,0.0,0.0,1.4769231,1.4769231,1.5567567,0.0,0.0,0.0,0.0,0.0,1.6,1.5567567,1.6,1.6,1.6,1.6,1.6,1.6,1.6,1.6,1.6,1.6,1.6,1.6,1.6,1.6,1.6457143,1.6457143,1.6457143,1.6457143,1.6457143,1.6457143,1.6457143,1.6457143,1.6941177,1.6457143,1.6457143,1.6457143,1.6,1.6,1.6,1.6,1.6,1.6,1.6,1.6,0.0,0.0,0.0,1.5567567,1.5567567,1.5567567,1.5567567,1.5567567,1.5567567,1.6,0.0,0.0,0.0,1.6457143,1.6457143,1.6457143,0.0,0.0,0.0,0.0,1.6,0.0,1.6,1.6457143,0.0,1.6457143,1.6457143,1.6457143,0.0,0.0,1.6,1.6457143,1.6941177,0.0,0.0,1.6457143,1.6457143,1.6457143,0.0,0.0,1.6,1.6,1.6,1.6457143,1.6457143,1.6457143,0.0,0.0,0.0,0.0,0.0,2.1333334,2.1333334,2.1333334,2.057143,2.1333334,2.1333334,2.1333334,2.1333334,2.1333334,2.1333334,2.1333334,2.2153847,2.2153847,2.2153847,2.2153847,2.2153847,2.2153847,2.304,2.2153847,2.2153847,2.5043478,2.5043478,2.5043478,0.0,0.0,0.0,2.4,0.0,0.0,0.0,0.0,0.0,0.0,0.0,0.0,0.0,2.5043478,2.5043478,0.0,0.0,2.5043478,0.0,0.0,0.0,0.0,0.0,2.4,2.4,0.0,2.304,0.0,0.0,2.7428572,2.7428572,2.7428572,0.0,2.1333334,0.0,0.0,0.0,2.2153847,0.0,0.0,0.0,0.0,0.0,0.0,0.0,0.0,0.0,0.0,0.0,0.0,1.5567567,0.0,1.5567567,0.0,0.0,0.0,0.0,0.0,0.0,0.0,0.0,1.28,1.28,1.28,0.0,1.2521739,1.2521739,1.2521739,0.0,0.0,0.0,0.0,0.0,0.0,0.0,0.0,0.0,0.0,0.0,0.0,0.0,0.9762712,0.9762712,0.0,0.0,0.0,0.0,0.0,0.0,0.0,0.9142857,0.9142857,0.9142857,0.9142857,0.9142857,0.9142857,0.9142857,0.9142857,0.9142857,0.9,0.9,0.9,0.9,0.9,0.9,0.9,0.9,0.9,0.9,0.9,0.9,0.8861538,0.8861538,0.8861538,0.9,0.9,0.9,0.9,0.8861538,0.8861538,0.8861538,0.8861538,0.9,0.8861538,0.8861538,0.8861538,0.8861538,0.8727273,0.8727273,0.8727273,0.8727273,0.8727273,0.8727273,0.8727273,0.8727273,0.8727273,0.8727273,0.8861538,0.8727273,0.8861538,0.8861538,0.8861538,0.8861538,0.8727273,0.8727273,0.8727273,0.8727273,0.8727273,0.8727273,0.8727273,0.8727273,0.8727273,0.8861538,0.8727273,0.8727273,0.8727273,0.8727273,0.8727273,0.8727273,0.8727273,0.8727273,0.9,0.8727273,0.8861538,0.8727273,0.8727273,0.8727273,0.8727273,0.8727273,0.8727273,0.8727273,0.8727273,0.8727273,0.8727273,0.8727273,0.8727273,0.8727273,0.8861538,0.8727273,0.8727273,0.8727273,0.8861538,0.8861538,0.8861538,0.8861538,0.8861538,0.8861538,0.8861538,0.8861538,0.8861538,0.9,0.9,0.9,0.9,0.9,0.9,0.9,0.9,0.9,0.9,0.9,0.9,0.9,0.9,0.9,0.9142857,1.1755102,1.1755102,0.0,0.0,0.0,0.0,0.92903227,0.92903227,0.0,1.0666667,0.94426227,0.0,0.0,0.0,0.0,0.0,0.0,0.0,0.0,1.3090909,0.0,1.0285715,1.0285715,1.0285715,1.0285715,1.0472727,0.0,1.0472727,1.0472727,1.0472727,1.0666667,1.0666667,1.0666667,1.0666667,1.0666667,0.0,1.8580645,1.8580645,1.4769231,1.8580645,0.99310344,1.8580645,1.8580645,1.8580645,1.8580645,2.7428572,1.8580645,1.8580645,2.2153847,2.4,1.8580645,1.8580645,1.8580645,1.8,1.404878,1.404878,1.8,1.8,1.8,1.8,1.8,1.8,1.8,1.8,1.8,1.8,1.8,1.8,1.8,1.8,1.8,1.8,1.8,1.8,1.8,1.8,1.8,1.8,1.8,1.8,1.8,1.8,1.8,1.8,1.8,1.8,1.8,1.8,1.8,1.8,1.8,1.8,1.8,1.8,1.8,1.8,1.8,1.8,1.8,1.8,1.8,1.8,1.8,1.8,1.7454545
1.5157895,1.5157895,1.5157895,1.5157895,1.5157895,1.5157895,1.5157895,1.5157895,1.5157895,1.6457143,1.6457143,1.6457143,0.0,0.82285714,0.0,0.0,1.5157895,1.5157895,1.5157895,0.0,1.4769231,1.4769231,0.0,0.0,1.6941177,0.0,0.0,0.0,1.6,1.6,1.6,1.6,1.6,1.6,1.6,1.6,1.6457143,1.6,1.6,1.6,1.6,1.6,1.6,1.6,1.6,1.6457143,1.6,1.6,1.6,1.6457143,1.6457143,1.6457143,1.6941177,1.6457143,1.6457143,1.6,1.6,1.6,1.6,1.6,1.6,1.6,1.6,0.0,0.0,1.5567567,0.0,1.5567567,0.0,1.5567567,1.5567567,1.5567567,1.5567567,1.6,1.6,0.0,0.0,0.0,1.6457143,1.6457143,0.0,1.6,0.0,0.0,1.6,1.6,1.6,1.6,1.6,1.6,1.6,1.6,1.6,0.0,1.6,0.0,1.6,1.6,1.6,1.6457143,0.0,0.0,0.0,0.0,1.6,1.6,1.6,1.6,0.0,0.0,1.6,1.6,0.0,2.1333334,2.1333334,2.1333334,2.1333334,2.1333334,2.1333334,2.1333334,2.1333334,2.1333334,2.1333334,2.1333334,2.1333334,2.1333334,2.2153847,2.2153847,2.2153847,2.2153847,2.2153847,2.2153847,2.2153847,2.2153847,2.2153847,2.2153847,2.2153847,2.2153847,2.2153847,2.2153847,0.0,2.1333334,2.4,2.2153847,0.0,0.0,0.0,0.0,0.0,0.0,0.0,2.5043478,2.5043478,2.5043478,2.5043478,0.0,0.0,0.0,0.0,0.0,0.0,2.304,1.92,2.2153847,2.304,0.0,2.6181817,2.7428572,2.7428572,2.7428572,0.0,0.0,0.0,0.0,0.0,2.2153847,2.2153847,0.0,0.0,0.0,0.0,0.0,0.0,0.0,0.0,0.0,0.0,0.0,0.0,1.5567567,0.0,0.0,0.0,0.0,0.0,0.0,0.0,0.0,0.0,0.0,1.28,1.28,1.28,0.0,1.2521739,1.2521739,0.0,0.0,0.0,0.0,0.0,0.0,0.0,0.0,0.0,0.0,0.0,0.0,0.0,0.0,0.0,0.0,0.0,0.0,0.9,0.0,0.9142857,0.9142857,0.9142857,0.9142857,0.9142857,0.9142857,0.9142857,0.9142857,0.9142857,0.9142857,0.9142857,0.9,0.9,0.9,0.9,0.9,0.9,0.9,0.9,0.9,0.9,0.9,0.9,0.8861538,0.8861538,0.8861538,0.8861538,0.9,0.9,0.9,0.8861538,0.8861538,0.9,0.8861538,0.8861538,0.8861538,0.8861538,0.8861538,0.8861538,0.8861538,0.8727273,0.8727273,0.8727273,0.8727273,0.8727273,0.8727273,0.8727273,0.8727273,0.8727273,0.8727273,0.8727273,0.8727273,0.8861538,0.8861538,0.8727273,0.8727273,0.8727273,0.8727273,0.8727273,0.8727273,0.8727273,0.8727273,0.8861538,0.8861538,0.8861538,0.8727273,0.8727273,0.8727273,0.8727273,0.8727273,0.8727273,0.8727273,0.8597015,0.8727273,0.8727273,0.8727273,0.8727273,0.8727273,0.8727273,0.8727273,0.8727273,0.8727273,0.8597015,0.8727273,0.8727273,0.8727273,0.8727273,0.8727273,0.8727273,0.8727273,0.8727273,0.8727273,0.8727273,0.96,0.8861538,0.8861538,0.8861538,0.8861538,0.8861538,0.8861538,0.8861538,0.8861538,0.8861538,0.9,0.9,0.9,0.9,0.9,0.9,0.9,0.9,0.9,0.9,0.9,0.9,0.9,0.9142857,0.92903227,0.92903227,1.1755102,1.1755102,1.1755102,0.9142857,0.9142857,0.9142857,0.9142857,0.0,0.0,0.0,0.94426227,0.94426227,0.0,0.0,0.0,0.0,0.0,0.0,1.3090909,0.0,1.0285715,1.0472727,1.0472727,0.0,1.0285715,1.0285715,0.0,1.0472727,1.0472727,1.0666667,1.0666667,1.0472727,1.0666667,0.0,0.0,0.0,0.0,1.92,1.8580645,1.8580645,1.8580645,1.8580645,1.8580645,1.8580645,2.7428572,1.8580645,1.3714286,2.2153847,2.2153847,1.8580645,1.0472727,1.0472727,1.8,1.28,1.8,1.8,1.8,1.8,1.8,1.8,1.8,1.8,1.8,1.8,1.8,1.8,1.8,1.8,1.8,1.8,1.8,1.8,1.8,1.8,1.92,1.8,1.8,1.8,1.8,1.8,1.8,1.8,1.8,1.8,1.8,1.8,1.8,1.8,1.8,1.8,1.8,1.8,1.8,1.8,1.8,1.8,1.8,1.8,1.8,1.8,1.8,1.8,1.8,1.8
1.5157895,1.5157895,1.5157895,1.5157895,1.5157895,1.5157895,1.5157895,1.5157895,1.5157895,1.6457143,1.6457143,0.0,0.0,0.0,1.5567567,1.5567567,1.5567567,0.0,0.0,0.0,1.6,0.0,1.6457143,0.0,1.6941177,0.0,0.0,1.6,1.5567567,1.5567567,1.6,1.6,1.6,1.6,1.6,1.6,1.6,1.6,1.6,1.6,1.6,1.6,1.6,1.6,1.6,1.6,1.6,1.6,1.6,1.6,1.6,1.6,1.6941177,1.6941177,1.6,1.6457143,1.6457143,1.6,1.6,1.6,1.6,1.6,1.6,0.0,0.0,1.5567567,1.6,0.0,0.0,1.5567567,1.5567567,1.5567567,1.5567567,1.6,1.6,0.0,1.6457143,1.6457143,1.6457143,1.6457143,0.0,0.0,0.0,0.0,1.6,1.6,1.6,1.6,0.0,1.6,1.6,0.0,1.6,1.6,1.6,1.6,1.6,1.6,1.6,1.6,1.6,1.6,1.6457143,0.0,1.6,1.6,1.6,1.6,1.6,1.6,1.6,0.0,0.0,2.1333334,2.1333334,2.1333334,2.1333334,2.1333334,2.1333334,1.6457143,2.1333334,2.2153847,2.1333334,2.1333334,2.1333334,2.1333334,2.2153847,2.2153847,2.2153847,2.2153847,2.2153847,2.2153847,2.2153847,2.304,2.304,2.2153847,2.2153847,2.2153847,2.2153847,2.2153847,2.2153847,0.0,0.0,2.304,2.304,0.0,2.2153847,2.2153847,0.0,2.1333334,0.0,0.0,0.0,2.4,0.0,0.0,2.6181817,0.0,0.0,1.9862069,2.304,2.304,0.0,0.0,0.0,0.0,2.6181817,0.0,0.0,2.7428572,0.0,0.0,2.1333334,2.1333334,0.0,2.2153847,0.0,2.1333334,0.0,0.0,0.0,0.0,0.0,0.0,0.0,0.0,0.0,0.0,0.0,0.0,0.0,0.0,0.0,0.0,0.0,0.0,0.0,0.0,0.0,0.0,0.7890411,0.0,0.0,1.2521739,0.0,0.0,0.0,0.0,0.0,0.0,0.0,0.0,0.0,0.0,0.0,0.0,0.0,0.0,0.0,0.0,0.0,0.0,0.0,0.9,0.9142857,0.9142857,0.9142857,0.9142857,0.9142857,0.9142857,0.9142857,0.9142857,0.9142857,0.9142857,0.9142857,0.9142857,0.9142857,0.9,0.9,0.9,0.9,0.9,0.9,0.9,0.9,0.9,0.9,0.9,0.9,0.9,0.9,0.9,0.9,0.9,0.9,0.9,0.9,0.8861538,0.8861538,0.8861538,0.8861538,0.8861538,0.8861538,0.8861538,0.8861538,0.8861538,0.8727273,0.8727273,0.8727273,0.8861538,0.8861538,0.8861538,0.8727273,0.8861538,0.8727273,0.8727273,0.8727273,0.8861538,0.8727273,0.8861538,0.8727273,0.8727273,0.8727273,0.8727273,0.8727273,0.8727273,0.8727273,0.8727273,0.8727273,0.8861538,0.8727273,0.8727273,0.8727273,0.8727273,0.8727273,0.8727273,0.8727273,0.8727273,0.8597015,0.8727273,0.8727273,0.8727273,0.8597015,0.8727273,0.8727273,0.8727273,0.8727273,0.8727273,0.8597015,0.8727273,0.8727273,0.8727273,0.8727273,0.8727273,0.8727273,0.8861538,0.8861538,0.8861538,0.8861538,0.8861538,0.8861538,0.8861538,0.8861538,0.8861538,0.8861538,0.8861538,0.8861538,0.9,0.8861538,0.8861538,0.9,0.9,0.9,0.9,0.9,0.9,0.9,0.9,0.9,0.9,0.9,0.9,0.9,0.92903227,0.92903227,0.92903227,1.1755102,0.9142857,0.9142857,0.9142857,0.9142857,0.9142857,0.9142857,0.92903227,0.94426227,0.94426227,0.94426227,0.94426227,0.0,1.8580645,0.0,0.0,0.0,0.0,0.0,0.0,0.0,1.0472727,0.0,1.0285715,1.0285715,1.0472727,1.0472727,1.0472727,1.0472727,1.0472727,1.0472727,0.0,0.0,0.0,0.0,0.0,0.0,0.0,1.8580645,1.8580645,1.8580645,1.8580645,1.8580645,1.8580645,1.8580645,1.3714286,1.8580645,1.8580645,1.8580645,1.0472727,1.8,1.8,1.28,0.8,8.228572,1.8,1.8,1.8,1.8,1.8,1.8,1.8,1.8,1.8,1.8,1.8,1.8,1.8,1.8,1.8,1.8,1.8,1.8,1.8,1.8,1.8,1.8,1.8,1.8,1.8,1.8,1.8,1.8,1.8,1.8,1.8,1.8,1.8,1.8,1.8,1.8,1.8,1.8,1.8,1.8,1.8,1.8,1.8,1.8,1.8,1.8,1.8,1.8
1.5157895,1.5157895,1.5157895,1.5157895,1.5567567,1.5157895,1.5157895,1.5157895,1.5157895,1.5157895,1.5567567,1.5157895,0.0,0.0,1.5567567,1.5567567,1.5567567,1.5567567,0.0,1.6,0.0,1.5567567,1.6457143,1.6457143,0.0,1.6,1.6,1.6,1.5567567,1.5567567,1.5567567,1.5567567,1.6,1.6,1.6,1.6,1.6,1.6,1.6,1.6,1.6,1.6,1.6,1.6,1.6,1.6,1.6,1.6,1.6,1.6,1.5567567,1.7454545,1.6,1.6,1.6457143,1.6457143,1.6457143,1.6457143,1.6,1.6,0.0,0.0,0.0,0.0,0.0,1.5567567,0.0,1.6,0.0,1.5567567,1.5567567,1.6,1.6,1.6,1.6,1.6,0.0,0.0,1.6941177,0.0,1.6457143,0.0,0.0,0.0,1.5567567,1.6,1.6,0.0,1.5567567,1.5567567,1.5567567,1.6,1.6,1.6,1.6,1.6,1.6,1.6,1.6,1.6,1.6,1.6,1.6,0.0,1.5567567,1.6,1.6,1.6,1.6,1.6,1.6,0.0,0.0,0.0,2.1333334,2.1333334,2.1333334,2.1333334,0.0,1.6457143,2.1333334,2.2153847,2.2153847,2.1333334,2.2153847,2.1333334,2.2153847,2.2153847,2.2153847,2.2153847,2.2153847,2.2153847,2.2153847,2.2153847,2.2153847,2.2153847,2.2153847,2.2153847,2.2153847,2.2153847,2.2153847,2.2153847,0.0,0.0,2.304,0.0,0.0,2.2153847,0.0,2.1333334,2.1333334,2.1333334,0.0,0.0,0.0,0.0,0.0,0.0,0.0,0.0,2.7428572,2.304,0.0,0.0,0.0,2.4,0.0,0.0,0.0,0.0,0.0,0.0,2.2153847,0.0,0.0,2.1333334,2.1333334,2.2153847,2.2153847,0.0,0.0,0.0,0.0,0.0,0.0,0.0,0.0,0.0,0.0,0.0,0.0,1.5157895,0.0,0.0,0.0,0.0,0.0,0.0,0.0,0.0,0.9142857,0.0,0.0,0.0,0.0,0.0,0.0,0.0,0.75789475,0.0,0.0,0.0,0.0,0.0,0.0,0.0,0.0,0.0,0.0,0.0,0.0,0.0,0.0,0.0,0.9142857,0.9142857,0.9142857,0.9142857,0.9142857,0.9142857,0.9142857,0.9142857,0.9142857,0.9142857,0.9142857,0.9142857,0.9142857,0.9,0.9,0.9,0.9,0.9,0.9,0.9,0.9,0.9,0.9,0.9,0.9,0.9,0.9,0.9,0.9,0.9,0.9,0.9,0.8861538,0.8861538,0.8861538,0.8861538,0.8861538,0.8861538,0.8861538,0.8861538,0.8861538,0.8861538,0.8727273,0.8727273,0.8727273,0.8861538,0.8861538,0.8861538,0.8861538,0.8861538,0.8727273,0.8727273,0.8727273,0.8727273,0.8861538,0.8861538,0.8727273,0.8727273,0.8727273,0.8727273,0.8727273,0.8727273,0.8727273,0.8727273,0.8861538,0.8861538,0.8727273,0.8727273,0.8727273,0.8727273,0.8727273,0.8727273,0.8727273,0.8727273,0.8727273,0.8727273,0.8727273,0.8727273,0.8597015,0.8597015,0.8597015,0.8727273,0.8727273,0.8727273,0.8727273,0.8727273,0.8727273,0.8727273,0.8727273,0.8727273,0.8727273,0.8727273,0.8727273,0.99310344,0.8861538,0.8861538,0.8727273,0.8861538,0.8861538,0.8861538,0.8861538,0.9,0.8861538,0.8861538,0.8861538,0.8861538,0.8861538,0.9,0.9,0.9,0.9,0.9,0.9,0.9,0.9,0.9,0.9,0.9,0.9,0.9,0.92903227,0.92903227,0.0,0.9142857,0.9142857,0.9142857,0.9142857,0.9142857,0.0,0.92903227,0.94426227,0.94426227,0.94426227,0.94426227,0.94426227,0.96,0.0,0.96,0.0,0.0,0.0,0.0,1.3395349,0.0,1.0285715,1.0285715,1.0285715,1.0285715,1.0472727,1.0472727,1.0472727,1.0472727,1.0472727,1.0472727,0.8597015,0.0,0.0,0.0,0.0,0.0,0.0,0.99310344,1.8580645,1.8580645,1.8580645,1.8580645,1.8580645,1.3714286,1.8580645,1.8580645,1.8580645,1.8580645,1.8580645,1.8,1.8,1.8,1.8,1.8,1.8,1.8,1.8,1.8,1.8,1.8,1.8,1.8,1.8,1.8,1.8,1.8,1.8,1.8,1.8,1.8,1.8,1.8,1.8,1.8,1.8,1.8,1.8,1.8,1.8,1.8,1.8,1.8,1.8,1.8,1.8,1.8,1.8,1.8,1.8,1.8,1.8,1.8,1.8,1.8,1.8,1.8,1.8,1.8,1.8,1.8,1.8
1.5157895,1.5157895,1.5157895,1.5157895,1.5157895,1.5567567,1.5157895,1.5157895,1.5567567,1.5567567,0.82285714,0.82285714,0.0,0.0,0.0,1.5157895,1.5567567,1.5567567,1.5567567,1.5567567,1.6,1.6457143,1.6457143,1.6457143,0.0,1.6,1.6,1.5567567,1.5567567,1.5567567,1.6,1.6,1.6,1.6,1.6,1.6,1.6,1.6,1.6,1.6,1.6,1.6,1.6,1.6,1.6,1.6,1.6,1.6,1.6,1.6,1.6,1.7454545,1.6,1.6,1.6,1.6457143,1.6457143,1.6457143,1.6,1.6,1.6,1.6,0.0,0.0,0.0,0.0,1.5567567,0.0,1.5567567,1.5567567,1.5567567,1.6,0.0,0.0,1.6,1.6,0.0,1.6,1.6457143,0.0,0.0,1.6,0.0,0.0,1.5567567,1.6,1.6,0.0,1.5567567,1.5567567,1.6,1.6,1.5567567,1.5567567,1.5567567,1.5567567,1.6,1.6,1.6,1.6,1.6,1.6,1.6,1.6,1.6,1.6,1.6,1.6,1.6,1.6,1.6,2.057143,0.0,2.1333334,2.1333334,2.1333334,2.1333334,0.0,0.0,0.0,2.2153847,2.2153847,2.2153847,2.2153847,2.2153847,2.2153847,2.2153847,2.2153847,2.2153847,2.2153847,2.2153847,2.2153847,2.2153847,2.2153847,2.2153847,2.2153847,2.2153847,2.2153847,2.2153847,2.2153847,2.2153847,2.2153847,2.2153847,2.2153847,2.2153847,2.2153847,2.304,2.304,2.304,2.304,2.304,2.304,2.304,2.304,0.0,0.0,0.0,2.2153847,2.6181817,2.7428572,0.0,0.0,0.0,0.0,0.0,2.304,2.304,2.304,0.0,0.0,0.0,2.4,0.0,0.0,0.0,1.9862069,2.2153847,2.2153847,2.2153847,0.0,0.0,0.0,0.0,0.0,0.0,0.0,0.0,0.0,0.0,0.0,0.0,0.0,0.0,0.0,0.0,0.0,0.0,0.0,0.0,0.0,0.0,0.0,0.0,0.0,0.0,0.0,0.0,0.0,0.0,0.0,0.0,0.0,0.0,0.0,0.0,0.0,0.0,0.0,0.0,0.0,0.0,0.0,0.0,0.0,0.0,0.9142857,0.9142857,0.9142857,0.9142857,0.9142857,0.9142857,0.9142857,0.9142857,0.9142857,0.9142857,0.9142857,0.9142857,0.9,0.9,0.9,0.9,0.9,0.9,0.9,0.9,0.9,0.9,0.9,0.9,0.9,0.9,0.9,0.9,0.9,0.8861538,0.9,0.8861538,0.8861538,0.8861538,0.8861538,0.8861538,0.8861538,0.8861538,0.8861538,0.8861538,0.8727273,0.8727273,0.8727273,0.8727273,0.8861538,0.8861538,0.8861538,0.8727273,0.8727273,0.8727273,0.8727273,0.8727273,0.8727273,0.8861538,0.8727273,0.8727273,0.8727273,0.8727273,0.8727273,0.8727273,0.8727273,0.8727273,0.8861538,0.8861538,0.8861538,0.8727273,0.8727273,0.8727273,0.8727273,0.8727273,0.8727273,0.8727273,0.8597015,3.2,0.8727273,0.8727273,0.8727273,0.8727273,0.8597015,0.8597015,0.8727273,0.8727273,0.8727273,0.8727273,0.8727273,0.8727273,0.8727273,0.8727273,0.8727273,0.8727273,0.8727273,0.99310344,0.99310344,0.8861538,0.8861538,0.8861538,0.8861538,0.8861538,0.8861538,0.9,0.8861538,0.8861538,0.8861538,0.8861538,0.8861538,0.9,0.9,0.9,0.9,0.9,0.9,0.9,0.9,0.8861538,0.8861538,0.8861538,0.9,0.9,0.9,0.9,0.0,0.9142857,0.9142857,0.9142857,0.9142857,0.9142857,0.9142857,0.0,0.94426227,0.94426227,0.94426227,0.94426227,0.94426227,0.0,0.0,0.9762712,0.9762712,0.0,0.0,0.0,0.0,0.0,1.0285715,1.0285715,1.0285715,1.0285715,0.0,1.0472727,1.0472727,1.0472727,1.0472727,1.0472727,1.0472727,1.0472727,1.0472727,0.0,0.0,0.0,0.0,0.0,0.0,0.0,1.8580645,1.8580645,1.8580645,1.8580645,1.8580645,1.8580645,1.8580645,1.8580645,1.8580645,1.8580645,1.8,1.8,1.8,1.8,1.8,1.8,1.8,1.8,1.8,1.8,1.8,1.8,1.8,1.8,1.8,1.8,1.8,1.8,1.8,1.8,1.8,1.8,1.8,1.7454545,1.8,1.8,1.8,1.8,1.8,1.8,1.8,1.8,1.8,1.8,1.8,1.8,1.8,1.8,1.8,1.8,1.8,1.8,1.8,1.8,1.8,1.8,1.8,1.8,1.8,1.8,1.8,1.8
1.5157895,1.5157895,1.5157895,1.5157895,1.5567567,1.5567567,1.5157895,1.5157895,1.5157895,1.5157895,1.5567567,0.0,0.0,0.0,1.5157895,1.5567567,1.5567567,1.5567567,0.0,1.5567567,1.6,1.6,0.0,1.6,1.6,0.0,1.5567567,1.5567567,1.6,1.6,1.6,1.6,1.6,1.6,1.6,1.6,1.6,1.6,1.6,1.6,1.6,1.6,1.6,1.6,1.6,1.6,1.6,1.6,1.6,1.6,1.6,1.6,1.6,1.6,1.6,1.6457143,1.6457143,1.6,1.6,1.6,1.6,1.6,0.0,0.0,0.0,1.5567567,1.5567567,1.5567567,1.5567567,1.5567567,1.5567567,1.5567567,1.5567567,1.5567567,1.5567567,1.6,0.0,1.6,1.6,1.6,0.0,1.6,1.6,1.6,0.0,1.5567567,0.0,1.6,1.6,1.5567567,1.6,1.5567567,1.5567567,1.5567567,1.5567567,1.5567567,1.5567567,1.6,1.6,1.5567567,1.6,1.6,1.5567567,1.6,1.6,1.6,1.6,1.6,1.6,1.6,2.057143,2.057143,0.0,2.1333334,2.1333334,0.0,2.2153847,2.2153847,2.2153847,0.0,2.2153847,2.2153847,2.2153847,2.2153847,2.2153847,2.2153847,2.2153847,2.2153847,2.2153847,2.2153847,2.2153847,2.2153847,2.2153847,2.2153847,2.2153847,2.2153847,2.2153847,2.2153847,2.2153847,2.2153847,2.2153847,2.2153847,2.2153847,2.2153847,2.2153847,2.2153847,2.304,2.304,2.304,2.304,2.304,0.0,2.2153847,2.304,2.304,2.304,0.0,2.2153847,0.0,0.0,0.0,0.0,0.0,0.0,0.0,2.304,0.0,0.0,2.2153847,0.0,0.0,0.0,0.0,3.84,0.0,1.92,2.2153847,2.2153847,2.2153847,0.0,0.0,0.0,0.0,0.0,1.5157895,1.5157895,0.0,0.0,0.0,0.0,0.0,0.0,0.0,0.0,0.0,0.0,0.0,0.0,0.0,0.0,0.0,0.0,0.0,0.0,0.0,0.0,0.0,0.0,0.0,0.0,0.0,0.0,0.0,0.0,0.0,0.0,0.0,0.0,0.0,0.0,0.0,0.0,0.0,0.0,0.0,1.0666667,0.9142857,0.9142857,0.9142857,0.9142857,0.9142857,0.9142857,0.9142857,0.9142857,0.9142857,0.9142857,0.9,0.9,0.9,0.9,0.9,0.9,0.9,0.9,0.9,0.9,0.9,0.9,0.9,0.9,0.9,0.8861538,0.8861538,0.9,0.8861538,0.8861538,0.8861538,0.8861538,0.8861538,0.8861538,0.8861538,0.8861538,0.8727273,0.8861538,0.8861538,0.8727273,0.8727273,0.8727273,0.8727273,0.9,0.8727273,3.84,0.8727273,0.8727273,0.8727273,0.8727273,0.8727273,0.8727273,0.8727273,0.8727273,0.8727273,0.8727273,0.8861538,0.8727273,0.8727273,0.8727273,0.8861538,0.8861538,0.8861538,0.8861538,0.8727273,0.8727273,0.8727273,0.8727273,0.8727273,0.8727273,0.8727273,0.8727273,0.8597015,3.031579,0.8727273,0.8727273,0.8727273,0.8727273,0.8597015,0.8727273,0.8727273,0.8727273,0.8727273,0.8727273,0.8727273,0.8727273,0.8727273,0.8727273,0.8727273,0.8727273,0.8727273,0.8727273,0.8861538,0.8861538,0.8861538,0.8861538,0.9,0.9,0.9,0.8861538,0.8861538,0.8861538,0.8861538,0.8861538,0.9,0.9,0.9,0.9,0.9,0.9,0.8861538,0.8861538,0.9,0.9,0.8861538,0.9,0.9,0.9,0.9,0.0,0.0,0.9142857,0.9142857,0.9142857,0.9142857,0.9142857,0.0,0.94426227,0.94426227,0.94426227,0.94426227,0.0,0.0,0.0,0.9762712,0.0,0.0,0.0,0.0,0.0,0.0,0.0,1.0285715,1.0285715,1.0285715,1.0285715,1.0285715,1.0285715,1.0472727,1.0472727,1.0472727,1.0472727,1.0472727,1.0472727,0.0,0.0,0.0,0.0,0.0,0.0,0.0,0.0,1.8580645,1.8580645,1.8580645,1.8580645,1.0472727,1.0472727,1.8580645,1.8580645,1.8580645,1.8,1.8,1.8,1.8,1.8,1.8,1.8,1.8,1.8,1.8,1.8,1.8,1.8,1.8,1.8,1.8,1.8,1.8,1.8,1.8,1.8,1.8,1.8,1.8,1.7454545,1.7454545,1.8,1.8,1.8,1.8,1.8,1.8,1.8,1.8,1.8,1.8,1.8,1.8,1.8,1.8,1.8,1.8,1.8,1.8,1.8,1.8580645,1.8,1.8,1.8,1.8,1.8,1.8
1.5157895,1.5157895,1.5157895,1.5567567,1.5567567,1.5567567,1.5157895,1.5157895,1.5157895,1.5157895,1.5157895,1.5157895,1.5157895,1.5157895,1.5157895,1.5567567,1.5567567,1.5567567,0.0,1.5157895,1.5567567,1.5567567,1.5567567,0.0,0.0,0.0,1.5567567,1.6,1.6,1.6,1.6,1.6,1.6,1.6,1.6,1.6,1.6,1.6,1.6,1.6,1.6,1.6,1.6,1.6,1.6,1.6,1.6,1.6,1.6,1.6,1.6,1.6,1.6,1.6,1.6,1.6,1.6,1.6,1.6,1.6,1.6,1.6,1.6,1.6,0.0,1.6,1.5567567,1.5567567,1.5567567,1.5567567,1.5567567,1.5567567,1.5567567,1.5567567,1.5567567,0.0,0.0,1.6,1.6,1.6,0.0,1.6,0.0,1.6,1.6,0.0,0.0,1.6,1.6,1.5567567,1.5567567,1.5567567,1.5567567,1.5567567,1.5567567,1.5567567,1.5567567,1.6,1.6,1.6,1.5567567,1.6,1.5567567,1.6,1.6,1.6,1.6,1.6,0.0,1.6,2.057143,0.0,0.0,0.0,2.1333334,2.2153847,0.0,2.304,0.0,2.2153847,2.2153847,2.2153847,2.2153847,2.2153847,2.2153847,2.2153847,2.2153847,2.2153847,2.2153847,2.2153847,2.2153847,2.2153847,2.2153847,2.2153847,2.2153847,2.2153847,2.2153847,2.2153847,2.2153847,2.2153847,2.2153847,2.2153847,2.2153847,2.2153847,2.2153847,2.2153847,2.2153847,2.304,2.304,2.304,2.304,0.0,0.0,2.304,0.0,2.2153847,0.0,2.2153847,2.2153847,0.0,0.0,0.0,2.4,0.0,2.4,0.0,0.0,2.2153847,0.0,0.0,0.0,0.0,3.84,0.0,0.0,2.6181817,2.2153847,2.2153847,2.2153847,0.0,0.0,0.0,0.0,1.5567567,0.0,1.5157895,1.5157895,0.0,0.0,1.8580645,0.0,1.8,0.0,0.0,0.0,0.0,0.0,0.0,0.0,0.0,0.0,0.0,0.0,0.0,0.0,0.0,0.0,0.0,0.0,0.0,0.0,0.0,0.0,0.0,0.0,0.0,0.0,0.0,0.0,0.0,0.0,0.0,0.0,0.0,0.0,0.9142857,0.9142857,0.9142857,0.9142857,0.9142857,0.9142857,0.9142857,0.9142857,0.9142857,0.9142857,0.9142857,0.9,0.9,0.9,0.9,0.9,0.9,0.9,0.9,0.9,0.9,0.9,0.9,0.9,0.9,0.9,0.9,0.8727273,0.8727273,0.8727273,0.8727273,0.8861538,0.8861538,0.8861538,0.8861538,0.8861538,0.8861538,0.8861538,0.8861538,0.8861538,0.8727273,0.8727273,0.8727273,0.9,0.8727273,0.8727273,0.8727273,0.8727273,0.8727273,0.8727273,0.8727273,0.8727273,0.8727273,0.84705883,0.8727273,0.8727273,0.8727273,0.8861538,0.9,0.8727273,0.8727273,0.8861538,0.8861538,0.8861538,0.8861538,0.8727273,0.8727273,0.8727273,0.8727273,0.8727273,0.8727273,0.8727273,0.8727273,0.8727273,0.8727273,0.8727273,0.8727273,0.8727273,0.8727273,0.9,0.8727273,0.9,0.9,0.9,0.9,0.8727273,0.8727273,0.8727273,0.8727273,0.8727273,0.8727273,0.8597015,0.8727273,0.8727273,0.8727273,0.8861538,0.8861538,0.8861538,0.9,0.9,0.8861538,0.8861538,0.8861538,0.8861538,0.8861538,0.8861538,0.8861538,0.8861538,0.9,0.9,0.8861538,0.8861538,0.8861538,0.8861538,0.8861538,0.9,0.9,0.9,0.9,0.0,0.0,0.0,0.9142857,0.0,0.9142857,0.9142857,0.9142857,0.9142857,0.0,0.0,0.0,0.9,0.9,0.0,0.0,0.9762712,0.0,0.0,1.3395349,0.0,0.0,0.0,0.0,0.0,1.0285715,1.0285715,1.0285715,1.0285715,1.0285715,1.0472727,1.0472727,1.0472727,1.0472727,1.0472727,1.0472727,1.0472727,0.0,0.0,0.0,0.0,0.0,1.8580645,0.0,0.0,0.0,1.8580645,1.8580645,1.0472727,1.0472727,1.8580645,1.8580645,1.8580645,1.8,1.8,1.8,1.8,1.8,1.8,1.8,1.8,1.8,1.8,1.8,1.8,1.8,1.8,1.8,1.8,1.8,1.8,1.8,1.8,1.8,1.8,1.8,1.8,1.7454545,1.8,1.8,1.8,1.8,1.8,1.8,1.8,1.8,1.8,1.8,1.8,1.8,1.8,1.8,1.8,1.8,1.8,1.8,1.8,1.8,1.8580645,1.8,1.8,1.8,1.8,1.8,1.8
1.5157895,1.4769231,1.5157895,1.5567567,1.5567567,1.5567567,1.5157895,1.5157895,1.5157895,1.5157895,1.5157895,1.5157895,1.5157895,1.5157895,1.5157895,1.5567567,1.5567567,1.5567567,0.0,0.0,1.5567567,0.0,0.0,1.5567567,1.5567567,1.5567567,1.5567567,1.6,1.6,1.6,1.5567567,1.6,1.6,1.6,1.6,1.6,1.6,1.6,1.6457143,1.6,1.6,1.6,1.6,1.6,1.6,1.6,1.6,1.6,1.6,1.6,1.6,1.6,1.6,1.6457143,1.6,1.6,1.6,1.6,1.5157895,1.6,1.6,1.6,1.6,1.6,1.6,1.6,1.5567567,1.5567567,1.5567567,1.5567567,1.5567567,1.5567567,1.5567567,1.5567567,1.5567567,1.6,1.6457143,1.6457143,1.6457143,0.0,0.0,1.6,0.0,1.5567567,0.0,1.5567567,1.5567567,1.6,1.6,1.5567567,1.5567567,1.5567567,1.5567567,1.5567567,1.5567567,1.5567567,1.5567567,1.5567567,1.6,1.6,1.5567567,1.5567567,1.5567567,1.6,1.6,1.6,1.6,1.6,1.6,1.6,0.0,0.0,0.0,0.0,2.1333334,2.2153847,0.0,0.0,0.0,0.0,2.2153847,2.2153847,2.2153847,2.1333334,2.2153847,2.2153847,2.2153847,2.2153847,2.2153847,2.2153847,2.2153847,2.2153847,2.2153847,2.2153847,2.2153847,2.2153847,2.304,2.2153847,2.2153847,2.2153847,2.2153847,2.2153847,2.2153847,2.2153847,2.2153847,2.2153847,2.2153847,2.304,2.304,2.304,2.304,2.2153847,0.0,2.304,2.304,2.304,2.304,0.0,0.0,0.0,0.0,0.0,2.4,0.0,0.0,0.0,0.0,2.2153847,2.2153847,2.2153847,0.0,0.0,0.0,0.0,0.0,0.0,2.7428572,0.0,0.0,0.0,0.0,0.0,1.8580645,1.8580645,1.8580645,0.0,0.0,1.8580645,1.8580645,1.8580645,0.0,0.0,0.0,0.0,0.0,0.0,0.0,0.0,0.0,0.0,0.0,0.94426227,0.0,0.0,0.0,0.0,0.0,0.0,0.0,0.0,0.0,0.0,0.0,0.0,0.0,0.0,0.0,0.0,0.0,0.0,0.0,0.0,0.92903227,0.0,0.9142857,0.9142857,0.9142857,0.9142857,0.9142857,0.9142857,0.9142857,0.9142857,0.9142857,0.9142857,0.9142857,0.9142857,0.9,0.9,0.9,0.9,0.9,0.9,0.9,0.9,0.9,0.9,0.9,0.9,0.9,0.9,0.9,0.8727273,0.8727273,0.8727273,0.8727273,0.8727273,0.8727273,0.8861538,0.8861538,0.8861538,0.8861538,0.8597015,0.8861538,0.8861538,0.8727273,0.8727273,0.8727273,0.8727273,0.8727273,0.9,0.8727273,0.8727273,0.8861538,0.8727273,0.8727273,0.8597015,3.6,3.6,0.8727273,0.8727273,0.8727273,0.9,0.8727273,0.8727273,0.9,0.8727273,0.8727273,0.8861538,0.8861538,0.8861538,0.8727273,0.8727273,0.8727273,0.8727273,0.8727273,0.8727273,0.8727273,0.8727273,0.8727273,0.8727273,0.8727273,0.8727273,0.8727273,0.8727273,0.8727273,0.8727273,0.8861538,0.9,0.9,0.9,0.8727273,0.8861538,0.8727273,0.8727273,0.8727273,0.8597015,0.8597015,0.8727273,0.8727273,0.8727273,0.8727273,0.8727273,0.8861538,0.9,0.8861538,0.8597015,0.8861538,0.8861538,0.8861538,0.8861538,0.8861538,0.8861538,0.8861538,0.8861538,0.9,0.9,0.8861538,0.9,0.8861538,0.9,0.9,0.9,0.9,0.9,0.9,0.9,0.9,0.9,0.0,0.9142857,0.9142857,0.9142857,0.9142857,0.0,0.0,0.0,0.9,0.9,0.0,0.0,0.0,0.96,0.0,1.3395349,0.0,0.0,0.0,0.0,0.0,0.0,1.0285715,1.0285715,1.0285715,1.0285715,1.0285715,1.0285715,1.0472727,1.0472727,1.0472727,1.0472727,1.0472727,1.0472727,0.0,0.0,1.8580645,0.0,1.8580645,0.0,0.0,0.0,1.8580645,0.0,1.0472727,0.0,1.8,1.8,1.8580645,1.8,1.8,1.8,1.8,1.8,1.8,1.8,1.8,1.8,1.8,1.8,2.6181817,1.8,1.8,1.8,1.8,1.8,1.8,1.8,1.8,1.8,1.8,1.8,1.8,1.8,1.8,1.8,1.8,1.8,1.8,1.8,1.8,1.8580645,1.8,1.8,1.8,1.8,1.8,1.8,1.8,1.8,1.8,1.8,1.8,1.8,1.8,1.8,1.8,1.8,1.8,1.8580645,1.8
1.4769231,1.4769231,1.5157895,1.6,1.5157895,1.5567567,1.5157895,1.5157895,1.5157895,1.5157895,1.5157895,1.5157895,1.5157895,1.5157895,0.0,1.5567567,1.5567567,0.0,0.0,0.0,0.0,0.0,0.0,1.5157895,1.5567567,0.0,1.5567567,1.6,1.6,1.6,1.6,1.6,1.6,1.6,1.6,1.6,1.6457143,1.6457143,1.6457143,1.6457143,1.6,1.6,1.92,1.6457143,1.6,1.6,1.6,1.6,1.6,1.6,1.5567567,1.6,1.6,1.6,1.6,1.6,1.6,1.6,1.5157895,1.5567567,1.5567567,0.0,1.6,1.6,1.6,1.6,1.6,1.5567567,1.5567567,1.5567567,1.5567567,1.5567567,1.5567567,1.5567567,0.0,0.0,0.0,1.6,0.0,1.6457143,0.0,1.6,1.6,0.0,1.6,1.5567567,1.5567567,1.5567567,1.5567567,1.5567567,1.5567567,1.5567567,1.5567567,1.5567567,1.5567567,1.5567567,1.5567567,1.5567567,1.5567567,1.6,1.6,1.5567567,1.6,1.6,1.6,1.6,1.5567567,1.5567567,1.5567567,1.6,0.0,2.2153847,0.0,0.0,2.2153847,2.2153847,0.0,1.92,0.0,0.0,2.2153847,2.2153847,2.2153847,2.2153847,2.2153847,2.2153847,2.2153847,2.2153847,2.2153847,2.2153847,2.2153847,2.2153847,2.2153847,2.2153847,2.2153847,2.2153847,2.2153847,2.2153847,2.2153847,2.2153847,2.2153847,2.2153847,2.2153847,2.2153847,2.2153847,2.2153847,2.2153847,2.2153847,2.2153847,2.2153847,2.2153847,2.2153847,2.2153847,2.304,2.2153847,2.304,0.0,2.304,0.0,0.0,0.0,0.0,0.0,0.0,0.0,0.0,0.0,0.0,0.0,0.0,0.0,0.0,0.0,0.0,0.0,0.0,0.0,0.0,0.0,0.0,0.0,0.0,0.0,1.92,0.0,0.0,0.0,0.0,1.8580645,1.8580645,0.0,0.0,1.2255319,0.0,0.0,0.0,0.0,0.0,0.0,0.0,0.0,0.94426227,0.0,0.0,0.0,0.0,0.0,0.0,0.0,0.0,0.0,0.0,0.0,0.0,0.0,0.0,0.0,0.0,0.0,0.8,0.0,0.92903227,0.92903227,0.0,0.9142857,0.9142857,0.9142857,0.9142857,0.9142857,0.9142857,0.9142857,0.9142857,0.9142857,0.9142857,0.9142857,0.9142857,0.9,0.9,0.9,0.9,0.9,0.9,0.9,0.9,0.9,0.9,0.9,0.9,0.9,0.9,0.8727273,0.8727273,0.8861538,0.8861538,0.8861538,0.8861538,0.8861538,0.8861538,0.8861538,0.8727273,0.8861538,0.8861538,0.8861538,0.9,0.9,0.8727273,0.8727273,0.8727273,0.8727273,0.8727273,0.8727273,0.8861538,0.8861538,0.8727273,0.8727273,0.8727273,0.8597015,0.8727273,0.8727273,0.8727273,0.8727273,0.9,0.8727273,0.8727273,0.8727273,0.8727273,0.8727273,0.8727273,0.8727273,0.8727273,0.8727273,0.8727273,0.8727273,0.8727273,0.8727273,0.8727273,0.8727273,0.8727273,0.8727273,0.8727273,0.8727273,0.8727273,0.8727273,0.8727273,0.8727273,0.8727273,0.9,0.9,0.9,0.8727273,0.8727273,0.8727273,0.8597015,0.8597015,0.8597015,0.8727273,0.8727273,0.8727273,0.8727273,0.8727273,0.8727273,0.8727273,0.8727273,0.8727273,0.8727273,0.8861538,0.8727273,0.8861538,0.8861538,0.8861538,0.8861538,0.8861538,0.8861538,0.8861538,0.9,0.9,0.9,0.9,0.9,0.9,0.9,0.9,0.9,0.9,0.9,0.9,0.9,0.9,0.9,0.9142857,0.9142857,0.9142857,0.9142857,0.9142857,0.9142857,0.9142857,0.9142857,0.0,0.0,0.0,0.0,0.94426227,0.0,0.0,0.0,0.0,0.0,0.0,0.0,0.0,1.3395349,1.0285715,1.0285715,1.0285715,1.0285715,1.0285715,1.0472727,1.0472727,1.0472727,1.0472727,1.0472727,1.0472727,0.0,0.0,0.0,0.0,0.0,0.0,0.0,0.0,2.4,0.0,0.0,0.0,1.8,1.8,1.8,1.8,1.8,1.8,1.8,1.8,1.8,1.8,1.8,1.8,1.8,1.8,1.8,1.8,1.8,1.8,1.8,1.8,1.8,1.8,1.8,1.8,1.8,1.8,1.8,1.8,1.8,1.8,1.8,1.8,1.8,1.8,1.8580645,1.8,1.8,1.8,1.8,1.8,1.8,1.8,1.8,1.8,1.8,1.8,1.8,1.8,1.8,1.8,1.8,1.8,1.8,1.8580645,1.8580645
1.4769231,1.4769231,1.4769231,1.5567567,1.5157895,1.5157895,1.5157895,1.5567567,1.5157895,1.5157895,1.5157895,1.5157895,1.5157895,1.5157895,1.5157895,1.5567567,1.5567567,0.0,1.6,0.0,1.6,1.6,0.0,1.6,0.0,1.6,1.6,1.6,1.6,1.6,1.6,1.6,1.6,1.6,1.6,1.6457143,1.6457143,1.6,1.6457143,1.6457143,1.6,1.6,1.6,1.6457143,1.6457143,1.6,1.6,1.6,1.6,1.5567567,1.6,1.6,1.6,1.6,1.6,1.6,1.6,1.5567567,1.5567567,1.6,1.5157895,1.5567567,0.0,0.0,1.6,1.5567567,1.5567567,1.5567567,1.5567567,1.5567567,1.5567567,1.5567567,1.5567567,1.5567567,0.0,1.6457143,1.6457143,1.6457143,0.0,1.6,1.6,1.6,1.6,1.6,1.6,1.5567567,1.5567567,1.5567567,1.5567567,1.5567567,1.5567567,1.5567567,1.5567567,1.5567567,1.5567567,1.5567567,1.5567567,1.5567567,1.5567567,1.6,1.6,1.5567567,1.5567567,1.5567567,1.6,1.6,1.6,1.6,1.6,1.6,1.6,2.2153847,2.304,0.0,0.0,0.0,0.0,0.0,0.0,1.8580645,2.2153847,2.2153847,2.2153847,2.2153847,2.2153847,2.2153847,2.2153847,2.2153847,2.2153847,2.2153847,2.2153847,2.2153847,2.2153847,2.2153847,2.2153847,2.2153847,2.2153847,2.4,2.2153847,2.2153847,2.2153847,2.2153847,2.2153847,2.2153847,2.2153847,2.2153847,2.2153847,2.2153847,2.2153847,2.2153847,2.2153847,2.2153847,2.2153847,2.2153847,2.2153847,2.2153847,2.2153847,2.2153847,0.0,2.2153847,2.2153847,0.0,0.0,0.0,0.0,0.0,0.0,2.2153847,0.0,0.0,0.0,0.0,0.0,0.0,0.0,0.0,0.0,0.0,0.0,0.0,0.0,0.0,0.0,1.92,1.9862069,0.0,0.0,1.7454545,1.8580645,0.0,0.0,0.0,1.2255319,0.0,0.0,0.0,0.0,0.0,0.0,0.0,0.0,0.94426227,0.0,0.0,0.0,0.0,0.0,0.0,0.0,0.0,0.0,0.0,0.0,0.0,0.0,0.0,0.0,0.0,0.0,0.94426227,0.0,0.92903227,0.92903227,0.0,0.9142857,0.9142857,0.9142857,0.9142857,0.9142857,0.9142857,0.9142857,0.9142857,0.9142857,0.9142857,0.9142857,0.9,0.9,0.9,0.9,0.9,0.9,0.9,0.9,0.9,0.9,0.9,0.9,0.9,0.9,0.9,0.8727273,0.8861538,0.8861538,0.9,0.8861538,0.8861538,0.8727273,0.8861538,0.8727273,0.8727273,0.8727273,0.8861538,0.9,0.9,0.9,0.9,0.8727273,0.8727273,0.8727273,0.8727273,0.8727273,0.8727273,0.8727273,0.8727273,0.8727273,0.8597015,0.8597015,0.8597015,0.8727273,0.8727273,0.8727273,0.8727273,0.8727273,0.8727273,0.8727273,0.8727273,0.8597015,0.8597015,0.8597015,0.8597015,0.8727273,0.8727273,0.8727273,0.8597015,0.8597015,0.8597015,0.8727273,0.8727273,0.8727273,0.8727273,0.8727273,0.8727273,0.8727273,0.8597015,0.8727273,0.8727273,0.8861538,0.8727273,0.8727273,0.8727273,0.8597015,0.8597015,0.8597015,0.8597015,0.8727273,0.8727273,0.8727273,0.8727273,0.8727273,0.8727273,0.8727273,0.8727273,0.8727273,0.8727273,0.8727273,0.8727273,0.8727273,0.8727273,0.8727273,0.8861538,0.8861538,0.8861538,0.8861538,0.8861538,0.8861538,0.9,0.9,0.8861538,0.8861538,0.8861538,0.8861538,0.9,0.0,0.0,0.0,0.0,0.9,0.9,57.6,0.9142857,0.9142857,0.9142857,0.9142857,0.0,0.0,0.0,0.9142857,1.0105263,0.92903227,0.0,0.0,0.0,0.0,0.0,1.0105263,0.0,0.0,0.0,0.0,0.0,1.3395349,1.3395349,1.0285715,1.0285715,1.0285715,1.0285715,1.0285715,1.0472727,1.0472727,1.0472727,1.0472727,1.0472727,0.0,0.0,0.0,0.0,0.0,0.0,0.0,0.0,1.8580645,1.8580645,0.0,0.0,1.8,1.8,1.8,1.8,1.8,1.8,1.8,1.8,1.8,1.8,1.8,1.8,1.8,1.8,1.8,1.8,1.8,1.8,1.8,1.8,1.8,1.8,1.8,1.8,1.8,1.8,1.8,1.8,1.8,1.8,1.8,1.8,1.8,1.8,1.8,1.8580645,1.8,1.8,1.8,1.8,1.8,1.8580645,1.8580645,1.8580645,1.8,1.8,1.8,1.8,1.8,1.8,1.8,1.8,1.8,1.8580645,1.8580645
1.5157895,1.5157895,1.5157895,1.5567567,1.5567567,1.5157895,1.5157895,1.5567567,1.5567567,1.5567567,0.0,1.5157895,1.5157895,1.5157895,1.5157895,1.5567567,1.5567567,1.5567567,1.5567567,0.0,1.6457143,0.0,0.0,0.0,0.0,1.6,1.6457143,1.6,1.6,1.6,1.6,1.6,1.6,1.6,1.6,1.6457143,1.6457143,1.6457143,1.6457143,1.6457143,1.6,1.6,1.6,1.6457143,1.6457143,1.6,1.6,1.6,1.6,1.5567567,1.6,1.6,1.6,1.6,1.6,1.6,1.6,1.6,1.5567567,1.5567567,1.6,1.5567567,1.5567567,1.5567567,1.5567567,1.5567567,1.5567567,1.5567567,0.0,1.5567567,1.5567567,1.5567567,1.5567567,1.5567567,1.6,1.6457143,1.6,1.6,1.6,1.6,1.6,1.6,1.6,1.6,1.5567567,1.5567567,1.5567567,1.5567567,1.5567567,1.5567567,1.5567567,1.5567567,1.5567567,1.5567567,1.5567567,1.5567567,1.5567567,1.5567567,1.5567567,1.5567567,1.5567567,1.5567567,1.5567567,1.5567567,1.5567567,1.6,1.6,1.6,1.6,1.6,1.6,2.2153847,0.0,0.0,0.0,0.0,2.304,0.0,0.0,0.0,2.2153847,2.304,2.2153847,2.2153847,2.2153847,2.2153847,2.2153847,2.2153847,2.2153847,2.2153847,2.2153847,2.2153847,2.2153847,2.2153847,2.2153847,2.2153847,2.4,2.4,2.2153847,2.2153847,2.2153847,2.2153847,2.2153847,2.2153847,2.2153847,2.2153847,2.2153847,2.2153847,2.2153847,2.2153847,2.2153847,2.2153847,2.2153847,2.2153847,2.2153847,2.2153847,2.2153847,2.2153847,2.2153847,2.2153847,2.2153847,2.2153847,2.2153847,2.2153847,2.2153847,2.2153847,0.0,0.0,0.0,0.0,0.0,0.0,0.0,0.0,0.0,0.0,0.0,0.0,0.0,2.1333334,0.0,0.0,0.0,1.92,1.9862069,1.9862069,0.0,1.7454545,1.8580645,0.0,0.0,0.0,0.0,0.0,0.0,0.0,0.0,0.0,0.0,0.0,0.0,0.0,0.0,0.0,0.0,0.0,0.0,0.0,0.0,0.0,0.0,0.0,0.0,0.0,0.0,0.0,0.0,0.0,0.0,0.94426227,0.0,0.92903227,0.92903227,0.92903227,0.0,0.9142857,0.9142857,0.9142857,0.9142857,0.9142857,0.9142857,0.9142857,0.9142857,0.9142857,0.9142857,0.9142857,0.9,0.9,0.9,0.9,0.9,0.9,0.9,0.9,0.9,0.9,0.9,0.9,0.9,0.9,0.8727273,0.9,0.8861538,0.8861538,0.8861538,0.8861538,0.8861538,0.8727273,0.8727273,0.8727273,0.8727273,0.8861538,0.8861538,0.8861538,0.8727273,0.8727273,0.8727273,0.8727273,0.8727273,0.8727273,0.8727273,0.8727273,0.8727273,0.8727273,0.8727273,0.8727273,0.8727273,0.8727273,0.8727273,0.8727273,0.8727273,0.8597015,0.8597015,0.8727273,0.8597015,0.8597015,0.8597015,0.8597015,0.8597015,0.8597015,0.8727273,0.8727273,0.8597015,0.8597015,0.8597015,0.8597015,0.8597015,0.8727273,0.8727273,0.8727273,0.8727273,0.8727273,0.8727273,0.8727273,0.8727273,0.8727273,0.8861538,0.8727273,0.8727273,0.8727273,0.8727273,0.8597015,0.8597015,0.8727273,0.8727273,0.8727273,0.8727273,0.8727273,0.8727273,0.8727273,0.8727273,0.8727273,0.8727273,0.8727273,0.8727273,0.8727273,0.8727273,0.8727273,0.8727273,0.8861538,0.8861538,0.8861538,0.8861538,0.8861538,0.8861538,0.8861538,0.8861538,0.8861538,0.8861538,0.8861538,0.8861538,0.0,0.0,0.0,0.0,0.0,0.9,0.0,0.0,0.0,0.0,0.0,0.0,0.0,0.0,0.0,0.9142857,0.92903227,0.92903227,0.0,0.0,0.0,0.96,0.96,1.0105263,0.0,0.0,0.99310344,0.99310344,0.0,0.0,0.0,1.0285715,1.0285715,1.0285715,1.0285715,1.0285715,1.0472727,1.0472727,1.0472727,1.0472727,1.0472727,1.0472727,1.0472727,0.0,0.0,0.0,0.0,0.0,0.0,1.8580645,1.8580645,0.0,0.0,1.8,1.8,1.8,1.8,1.8,1.8,1.8,1.8,1.8,1.8,1.8,1.8,1.8,1.8,1.8,1.8,1.8,1.8,1.8,1.7454545,1.8,1.8,1.8,1.8,1.8,2.304,1.7454545,1.7454545,1.8,1.8,1.8,1.8,1.8,1.8,0.7890411,1.8,1.8,1.8,1.8,1.8,1.8,1.8,1.8580645,1.8580645,1.8580645,1.8580645,1.8,1.8,1.8,1.8,1.8,1.8,2.057143,2.057143,1.8
1.5157895,1.5157895,1.5157895,1.5157895,1.5157895,1.5157895,1.5157895,1.5157895,1.5157895,1.5567567,0.0,1.5567567,0.0,0.0,2.057143,2.057143,2.057143,1.5567567,1.5567567,0.0,0.0,0.0,0.0,0.0,0.0,1.6457143,0.0,1.6,1.5567567,1.6,1.6,1.6,1.6,1.6,1.6,1.6457143,1.6457143,1.6457143,1.6457143,1.6457143,1.6,1.6,1.6,1.6,1.6457143,1.6457143,1.6,1.6,1.5567567,1.5567567,1.6,1.6,1.6,1.6,1.6,1.6,1.6,1.6,1.5567567,1.6,1.6,1.6,1.5567567,1.5567567,1.5567567,1.5567567,1.5567567,1.5567567,0.0,1.5567567,1.5567567,1.5567567,1.5567567,1.6,1.6,1.6,1.6,1.6,1.6,1.6,1.6,1.6,1.6,1.6,1.6,1.6,1.5567567,1.5567567,1.5567567,1.5567567,1.5567567,1.5567567,1.5567567,1.5567567,1.5567567,1.5567567,1.5567567,1.5567567,1.5567567,1.5567567,1.5567567,1.5567567,1.5567567,1.5567567,1.5567567,1.5567567,1.6,1.6,1.6,1.6,1.6,2.2153847,0.0,0.0,0.0,0.0,2.304,2.304,0.0,0.0,2.2153847,2.2153847,2.2153847,2.2153847,2.2153847,2.2153847,2.2153847,2.2153847,2.2153847,2.2153847,2.2153847,2.2153847,2.2153847,2.2153847,2.2153847,2.4,2.4,2.2153847,2.2153847,2.2153847,2.2153847,2.2153847,2.2153847,2.2153847,2.2153847,2.2153847,2.2153847,2.2153847,2.2153847,2.1333334,2.2153847,2.2153847,2.2153847,2.2153847,2.2153847,2.2153847,2.2153847,2.2153847,2.2153847,2.2153847,2.2153847,2.2153847,2.2153847,2.2153847,2.2153847,0.0,0.0,0.0,0.0,0.0,0.0,2.304,0.0,0.0,0.0,2.5043478,2.5043478,0.0,0.0,0.0,0.0,0.0,0.0,0.0,0.0,0.0,1.8,0.0,0.0,0.0,0.0,0.0,0.0,0.0,0.0,0.0,0.0,0.0,0.0,0.0,0.0,0.0,0.0,0.0,0.0,0.0,0.0,0.0,0.0,0.0,0.0,0.0,0.0,0.0,0.0,2.88,0.0,0.0,0.0,0.0,0.92903227,0.92903227,0.92903227,0.0,0.9142857,0.9142857,0.9142857,0.9142857,0.9142857,0.9142857,0.9142857,0.9142857,0.9142857,0.9,0.9,0.9,0.9,0.9,0.9,0.9,0.8861538,0.9,0.9,0.9,0.9,0.9,0.9,0.9,0.9,0.9,0.9,0.8727273,0.9,0.8861538,0.8861538,0.8727273,0.8727273,0.8727273,0.8727273,0.8861538,0.8727273,0.8861538,0.8861538,0.8727273,0.8727273,0.8727273,0.8727273,0.8727273,0.8727273,0.8727273,0.8727273,0.8727273,0.8727273,0.8727273,0.8727273,0.8727273,0.8727273,0.8727273,0.8727273,0.8727273,0.8727273,0.8597015,0.8597015,0.8597015,0.8597015,0.8597015,0.8597015,0.8597015,0.8597015,0.8597015,0.8597015,0.8597015,0.8597015,0.8597015,0.8597015,0.8597015,0.8597015,0.8597015,0.8727273,0.8727273,0.8727273,0.8727273,0.8727273,0.8727273,0.8727273,0.8727273,0.8861538,0.9,0.9,0.8727273,0.8727273,0.8727273,0.8727273,0.8727273,0.8727273,0.8727273,0.8727273,0.8727273,0.8727273,0.8727273,0.8727273,0.8727273,0.8727273,0.8727273,0.8727273,0.8727273,0.8727273,0.8861538,0.8861538,0.8861538,0.8861538,0.8861538,0.8861538,0.8861538,0.8861538,0.8861538,0.8861538,0.8861538,0.8861538,0.8861538,0.8861538,0.0,0.0,0.0,0.0,0.0,0.0,0.0,0.0,0.0,0.0,0.0,0.0,0.0,1.8,0.0,0.9142857,0.92903227,0.0,0.0,0.0,0.0,0.0,0.96,0.96,0.9762712,0.99310344,0.99310344,0.99310344,0.0,0.0,0.0,1.0285715,1.0285715,1.0285715,1.0285715,1.0285715,1.0285715,1.0472727,1.0472727,1.0472727,1.0472727,1.0472727,1.0472727,1.0472727,0.0,1.0285715,0.0,0.0,1.8580645,0.0,1.8580645,0.0,0.0,1.8,1.8,1.8,1.8,1.8,1.8580645,1.8,1.8,1.8,1.8,1.8,1.8,1.8,1.8,1.8,1.8,1.8,1.8,1.8,1.8,1.7454545,1.8,1.8,1.8,1.8,1.8,1.8,1.8,1.8,1.8,1.8,1.8,1.8,1.8,0.7890411,1.8,1.8,1.8,1.8,1.8,1.8,1.8580645,1.8580645,1.8580645,1.8580645,1.8580645,1.8,1.8,1.8,1.1755102,1.8,1.8,1.8,1.9862069,1.8
1.5157895,1.5567567,1.5567567,1.5157895,1.5157895,1.5157895,1.5157895,0.0,0.0,1.6,0.0,1.5567567,0.0,0.0,2.057143,2.057143,2.057143,0.0,0.0,0.0,0.0,0.0,0.0,0.0,0.0,0.0,0.0,1.6,1.6,1.6,1.6,1.6,1.6,1.6,1.6,1.6457143,1.6457143,1.6457143,1.6457143,1.6457143,1.6,1.6,1.6,1.6,1.6,1.6,1.6,1.6,1.5567567,1.5567567,1.5567567,1.5567567,1.6,1.6,1.6,1.6,1.6,1.6,1.5567567,1.6,1.6,1.6,1.5567567,1.5567567,1.5567567,1.5567567,1.5567567,1.5567567,1.5567567,1.5567567,1.5567567,1.5567567,1.5567567,1.6,1.6,1.6,1.6,1.6457143,1.6,1.6,1.6,1.6,1.6,1.6,1.6,1.5567567,1.5567567,1.5567567,1.5567567,1.5567567,1.5567567,1.5567567,1.5567567,1.5567567,1.5567567,1.5567567,1.5567567,1.5567567,1.5567567,1.5567567,1.5567567,1.5567567,1.5567567,1.5567567,1.9862069,1.5567567,1.6,1.6,1.6,1.6,1.6,2.1333334,0.0,0.0,2.304,2.1333334,0.0,0.0,0.0,2.2153847,2.2153847,2.2153847,2.2153847,2.2153847,2.2153847,2.2153847,2.2153847,2.2153847,2.2153847,2.2153847,2.2153847,2.2153847,2.2153847,2.2153847,2.2153847,2.2153847,2.2153847,2.2153847,2.2153847,2.2153847,2.2153847,2.2153847,2.2153847,2.2153847,2.2153847,2.2153847,2.2153847,2.2153847,2.2153847,2.2153847,2.2153847,2.2153847,2.2153847,2.2153847,2.2153847,2.2153847,2.2153847,2.2153847,2.2153847,2.2153847,2.2153847,2.2153847,2.2153847,2.2153847,2.2153847,2.304,0.0,2.4,0.0,0.0,2.4,0.0,0.0,0.0,0.0,2.5043478,2.5043478,0.0,0.0,0.0,0.0,0.0,0.0,0.0,0.0,0.0,1.8,1.8,0.0,0.0,0.0,0.0,0.0,0.0,0.0,0.0,0.0,0.0,0.0,0.0,0.0,0.0,0.0,0.0,0.0,0.0,0.0,0.0,0.0,0.0,0.0,0.0,0.0,0.0,0.0,0.0,0.0,0.0,0.0,0.92903227,0.92903227,0.92903227,0.92903227,0.0,0.9142857,0.9142857,0.9142857,0.9142857,0.9142857,0.9142857,0.9142857,0.9,0.9,0.9,0.9,0.9,0.9,0.9,0.9,0.9,0.9,0.9,0.9,0.9,0.9,0.9,0.9,0.9,0.9142857,0.9,0.9,0.9,0.8861538,0.8861538,0.8861538,0.8727273,0.8727273,0.8727273,0.8727273,0.8861538,0.8861538,0.8861538,0.8861538,0.8727273,0.8727273,0.8727273,0.8727273,0.8727273,0.8727273,0.8727273,0.8727273,0.8727273,0.8727273,0.8727273,0.8727273,0.8597015,0.8727273,0.8597015,0.8727273,0.8727273,0.8597015,0.8597015,0.8597015,0.8597015,0.8597015,0.8597015,0.8597015,0.8597015,0.8597015,0.8597015,0.8597015,0.8597015,0.8597015,0.8597015,0.8597015,0.8597015,0.8597015,0.8597015,0.8597015,0.8727273,0.8727273,0.8727273,0.8727273,0.8727273,0.8727273,0.8727273,0.8727273,0.8727273,0.8727273,0.8727273,0.8727273,0.8727273,0.8727273,0.8727273,0.8727273,0.8727273,0.8727273,0.8727273,0.8727273,0.8727273,0.8727273,0.8727273,0.8727273,0.8727273,0.8727273,0.8727273,0.8727273,0.8727273,0.8861538,0.8861538,0.8861538,0.8861538,0.8861538,0.8861538,0.8861538,0.8861538,0.8861538,0.8861538,0.8727273,0.8727273,0.9,0.9,0.9,0.0,0.8861538,0.0,0.8861538,0.0,0.0,0.0,0.0,0.0,0.92903227,0.0,1.8,0.0,0.0,0.92903227,0.0,0.0,0.0,0.0,0.92903227,0.0,0.96,0.96,0.99310344,0.99310344,0.99310344,0.0,0.0,0.0,0.0,1.0285715,1.0285715,1.0285715,1.0285715,1.0285715,1.0285715,1.0472727,1.0472727,1.0472727,1.0472727,1.0472727,0.0,1.0285715,0.0,0.0,0.0,0.0,0.0,1.8580645,1.8580645,1.8580645,1.8,1.8,1.8,1.8,1.8,1.8,1.8,1.8,1.8,1.8,1.8,1.8,1.8,1.8,1.8,1.8,1.8,1.8,1.8,0.82285714,0.82285714,1.8,1.8,1.8,1.8,1.8,1.8,1.8,1.8,1.8,1.8,1.8,1.8,1.8,1.8,1.8,1.8,1.8,1.8,1.8,1.8580645,1.8580645,1.8580645,1.8580645,1.8580645,1.8580645,1.8580645,1.8,2.1333334,1.8,1.8,1.9862069,1.8,1.92,1.92
1.5157895,1.5157895,1.5157895,1.5157895,1.5157895,1.5567567,0.0,0.0,0.0,0.0,0.0,0.0,0.0,0.0,2.057143,0.0,0.0,0.0,0.0,0.0,0.0,1.2,1.2,0.0,0.0,0.0,0.0,0.0,1.6,1.5567567,1.6,1.6,1.6,1.6,1.6457143,1.6457143,1.6457143,1.6457143,1.6457143,1.6457143,1.6,1.6,1.6,1.6,1.6,1.6,1.6,1.6,1.5567567,1.5567567,1.5567567,1.5567567,1.6,1.6,1.6,1.6,1.6,1.6,1.6,1.6,1.6,1.6,1.5567567,1.5567567,1.5567567,1.5567567,1.5567567,1.5567567,1.5567567,1.5567567,1.5567567,1.6457143,1.5567567,1.6,1.6,1.6,1.6,1.6457143,1.6457143,1.6457143,1.5567567,1.6,1.6,1.6,1.6,1.6,1.5567567,1.5567567,1.5567567,1.5567567,1.5567567,1.5567567,1.5567567,1.5567567,1.5567567,1.5567567,1.5567567,1.5567567,1.5567567,1.5567567,1.5567567,1.5567567,1.5567567,1.5567567,1.5567567,1.5567567,1.6,1.6,1.6,1.6,1.6,0.0,2.1333334,2.1333334,2.1333334,2.2153847,2.2153847,0.0,0.0,2.2153847,2.2153847,2.2153847,2.304,2.304,2.2153847,2.2153847,2.2153847,2.2153847,2.2153847,2.2153847,2.2153847,2.2153847,2.2153847,2.2153847,2.2153847,2.2153847,2.2153847,2.2153847,2.2153847,2.2153847,2.2153847,2.2153847,2.2153847,2.2153847,2.2153847,2.2153847,2.304,2.2153847,2.2153847,2.2153847,2.2153847,2.2153847,2.2153847,2.2153847,2.2153847,2.2153847,2.2153847,2.2153847,2.2153847,2.2153847,2.2153847,2.304,2.304,2.2153847,2.2153847,2.304,0.0,0.0,2.304,2.304,2.304,0.0,0.0,0.0,0.0,0.0,0.0,0.0,0.0,0.0,0.0,0.0,1.92,1.92,0.0,0.0,0.0,1.8,0.0,0.0,0.0,0.0,4.114286,4.114286,4.114286,0.0,0.0,0.0,0.0,0.0,0.0,0.0,0.0,0.0,0.0,0.0,0.0,0.0,0.0,0.0,0.0,0.0,0.0,0.0,0.0,0.0,0.0,0.0,0.0,0.92903227,0.92903227,0.92903227,0.92903227,0.0,0.9142857,0.9142857,0.9142857,0.9142857,0.9142857,0.9142857,0.9,0.9,0.9,0.9,0.9,0.9,0.9,0.9,0.9,0.9,0.9,0.9,0.9,0.9,0.9,0.9,0.9,0.9,0.9142857,0.9,0.9,0.9,0.9,0.8727273,0.8861538,0.8861538,1.2521739,0.8727273,0.8727273,0.8861538,0.8861538,0.8861538,0.8727273,0.8727273,0.8727273,0.8727273,0.8727273,0.8727273,0.8727273,0.8727273,0.8727273,0.8727273,0.8727273,0.8727273,0.8727273,0.8727273,0.8727273,0.8727273,0.8727273,0.8597015,0.8597015,0.8597015,0.8597015,0.8597015,0.8597015,0.8597015,0.8597015,0.8597015,0.8597015,0.8597015,0.8597015,0.8597015,0.8597015,0.8597015,0.8597015,0.8597015,0.8597015,0.8597015,0.8727273,0.8727273,0.8727273,0.8597015,0.8727273,0.8597015,0.8597015,0.8597015,0.8727273,0.8727273,0.8861538,0.8727273,0.8727273,0.8727273,0.8727273,0.8727273,0.8727273,0.8727273,0.8727273,0.8727273,0.8727273,0.8727273,0.8727273,0.8727273,0.8727273,0.8727273,0.8727273,0.8727273,0.8727273,0.8597015,0.8861538,0.8861538,0.8861538,0.8861538,0.8861538,0.9,0.8861538,0.8861538,0.8861538,0.8861538,0.8861538,0.8727273,0.9,0.0,0.0,0.0,0.0,0.0,0.8861538,0.0,0.0,0.0,0.0,0.0,0.92903227,0.0,1.8,0.0,0.0,0.0,0.0,0.0,0.0,0.0,0.92903227,0.94426227,0.94426227,0.94426227,0.0,0.99310344,0.99310344,0.0,0.0,0.0,0.0,1.0285715,1.0285715,1.0285715,1.0285715,1.0285715,1.0472727,1.0472727,1.0472727,1.0472727,1.0472727,1.0472727,0.0,0.0,0.0,0.0,0.0,0.0,0.0,1.8580645,1.8580645,1.8580645,1.8,1.8,1.8,1.8,1.8,1.8,1.8,1.8,1.8,1.8,1.8,1.8,1.8,1.8,1.8,1.8,1.8,1.8,1.8,1.8,0.82285714,1.8,1.8,1.8,1.8,1.8,1.8,1.8,1.8,1.8,1.8,1.8,1.8,1.8,1.8,1.8,1.8,1.8,1.8,1.8,1.8580645,1.8580645,1.8580645,1.8580645,1.8580645,1.8580645,1.8580645,1.8580645,1.8580645,1.8580645,1.8580645,1.8580645,1.8580645,1.92,1.92
1.5157895,1.5157895,0.0,1.44,0.0,1.5157895,0.0,0.0,0.0,0.0,0.0,0.0,0.0,0.0,0.0,0.0,0.0,0.0,0.0,0.0,0.0,1.6457143,1.2,1.6,0.0,1.6457143,0.0,0.0,0.0,1.6,1.6,1.6,1.6,1.6457143,1.6457143,1.6457143,1.6457143,1.6457143,1.6457143,1.6457143,1.6,1.6,1.6,1.6,1.6,1.6,1.5567567,1.6,1.6,1.6,1.5567567,1.5567567,1.5567567,1.6,1.6,1.6,1.6,1.6,1.6,1.6,1.6,1.6,1.5567567,1.5567567,1.5567567,1.5567567,1.6,1.5567567,1.5567567,1.5567567,1.5567567,1.6457143,1.5567567,1.6,1.5567567,1.5567567,1.6,1.6457143,1.5567567,1.5567567,1.6,1.6,1.6,1.6,1.5567567,1.6457143,1.5567567,1.5157895,1.5567567,1.5567567,1.5567567,1.5567567,1.5567567,1.5567567,1.5567567,1.5567567,1.5567567,1.5567567,1.5567567,1.5567567,1.5567567,1.5567567,1.5567567,1.5567567,1.5567567,1.5567567,1.5567567,1.6,1.6,1.6,1.6,0.0,2.1333334,2.1333334,0.0,2.2153847,2.2153847,0.0,0.0,2.2153847,2.2153847,2.304,2.304,2.304,2.2153847,2.2153847,2.2153847,2.2153847,2.2153847,2.2153847,2.2153847,2.2153847,2.2153847,2.2153847,2.2153847,2.2153847,2.2153847,2.2153847,2.2153847,2.2153847,2.2153847,2.2153847,2.2153847,2.2153847,2.2153847,2.2153847,2.2153847,2.2153847,2.2153847,2.2153847,2.2153847,2.2153847,2.2153847,2.2153847,2.2153847,2.2153847,2.2153847,2.2153847,2.2153847,2.2153847,2.2153847,2.2153847,2.2153847,2.2153847,2.2153847,2.304,2.304,2.304,2.304,0.0,2.304,0.0,0.0,0.0,0.0,2.5043478,0.0,0.0,0.0,0.0,0.0,0.0,0.0,1.92,1.92,0.0,0.0,1.8,1.8,0.0,0.0,0.0,4.114286,0.0,0.0,0.0,0.0,0.0,0.0,0.0,0.0,0.0,0.0,0.0,0.0,0.0,0.0,0.0,0.0,0.0,0.0,0.0,0.0,0.0,0.0,0.0,0.0,0.0,0.0,0.92903227,0.92903227,0.92903227,0.92903227,0.0,0.9142857,0.9142857,0.0,0.0,0.9142857,0.9142857,0.9,0.9,0.9,0.9,0.9,0.9,0.9,0.9,0.9,0.9,0.9,0.9,0.9,0.9,0.9,0.9,0.9,0.9,0.9,0.9,0.9,0.8597015,0.8727273,0.8727273,0.8597015,0.8597015,0.8597015,1.2521739,1.2521739,0.8861538,0.8861538,0.8861538,0.8597015,0.8597015,0.8727273,0.8727273,0.8727273,0.8727273,0.8727273,0.8727273,0.8727273,0.8727273,0.8727273,0.8727273,0.8727273,0.8727273,0.8727273,0.84705883,0.84705883,0.8597015,0.8597015,0.8597015,0.8597015,0.8597015,0.8597015,0.8597015,0.8597015,0.8597015,0.8597015,0.8597015,0.8597015,0.8597015,0.8597015,0.8597015,0.8597015,0.8597015,0.8597015,0.8597015,0.8597015,0.8597015,0.8597015,0.8597015,0.8597015,0.8597015,0.8597015,0.8597015,0.8727273,0.8727273,0.8597015,0.8727273,0.8727273,0.8727273,0.8727273,0.8727273,0.8727273,0.8727273,0.8727273,0.8727273,0.8727273,0.8727273,0.8727273,0.8727273,0.8727273,0.8727273,0.8727273,0.8727273,0.8597015,0.8861538,0.8861538,0.8861538,0.8861538,0.8861538,0.8861538,0.8861538,0.8861538,0.8861538,0.8861538,0.8861538,0.8861538,0.9,0.9,0.8861538,0.8861538,0.0,0.0,0.0,0.8861538,0.0,0.0,0.0,0.0,0.0,0.92903227,0.92903227,0.0,0.0,0.0,0.0,0.0,0.0,0.0,0.0,0.94426227,0.94426227,0.94426227,0.94426227,0.0,0.99310344,0.99310344,0.0,0.0,0.0,0.0,0.0,1.0285715,1.0285715,1.0285715,1.0285715,1.0285715,1.0285715,1.0472727,1.0472727,1.0472727,1.0472727,1.0285715,1.0285715,0.0,0.0,0.0,0.0,1.8580645,1.8580645,1.8580645,1.8580645,1.8,1.8,1.8,1.8,1.8,1.8,1.8,1.8,1.8,1.8,1.8,1.8,1.8,1.8,1.8,1.8,1.8,1.7454545,1.8,1.8,0.82285714,1.8,1.8,1.8,1.8,1.8,1.8,1.8,1.8,1.8,1.8,1.8,1.8,1.8,1.8,1.8,1.8,1.8,1.8,1.8580645,1.8580645,1.8580645,1.8580645,1.8580645,1.8580645,1.8580645,1.8580645,1.8580645,1.8580645,1.8580645,1.8580645,1.8580645,1.8580645,1.92,1.92
0.0,0.0,1.44,1.44,1.44,1.5157895,1.5157895,0.0,0.0,0.0,0.0,0.0,0.0,0.0,0.0,0.0,0.0,0.0,0.0,0.0,1.6941177,0.0,1.2,1.6,0.0,0.0,1.6457143,1.6457143,1.6457143,0.0,1.6457143,1.6457143,1.6457143,1.6457143,1.6457143,1.6457143,1.6457143,1.6457143,1.6457143,1.6457143,1.6457143,1.6,1.6,1.6,1.6,1.6,1.5567567,1.5567567,1.5567567,1.6,1.6,1.5567567,1.6,1.6,1.6,1.6,1.6,1.6,1.6,1.6,1.6,1.6,1.5567567,1.5567567,1.5567567,1.6,1.6,1.5567567,1.5567567,1.5567567,1.5567567,1.6,1.5567567,1.5567567,1.5567567,1.5567567,1.5567567,1.5567567,1.5567567,1.5567567,1.5567567,1.6,1.6,1.6,1.6941177,1.5567567,1.6457143,1.5567567,1.5567567,1.5567567,1.5567567,1.5567567,1.5567567,1.5567567,1.5567567,1.5567567,1.5567567,1.5567567,1.5567567,1.5567567,1.5567567,1.5567567,1.5567567,1.5567567,1.5567567,1.5567567,1.5567567,1.6,1.6,1.6,1.6,1.6,2.1333334,2.1333334,0.0,2.2153847,2.2153847,0.0,0.0,2.2153847,2.2153847,2.2153847,2.304,2.304,2.2153847,2.2153847,2.2153847,2.2153847,2.2153847,2.2153847,2.2153847,2.2153847,2.057143,2.2153847,2.2153847,2.2153847,2.2153847,2.2153847,2.2153847,2.2153847,2.2153847,2.2153847,2.2153847,2.2153847,2.2153847,2.2153847,2.2153847,2.2153847,2.2153847,2.2153847,2.2153847,2.2153847,2.2153847,2.2153847,2.2153847,2.2153847,2.2153847,2.2153847,2.2153847,2.2153847,2.2153847,2.2153847,2.2153847,2.2153847,2.2153847,2.2153847,2.2153847,2.2153847,2.2153847,0.0,2.4,0.0,0.0,0.0,0.0,0.0,0.0,0.0,0.0,0.0,0.0,0.0,0.0,0.0,0.0,0.0,0.0,1.8,0.0,0.0,0.0,0.0,0.0,0.0,0.0,0.0,0.0,0.0,1.28,0.0,0.0,0.0,0.0,0.0,0.0,0.0,0.0,0.0,0.0,0.0,0.0,0.0,0.0,0.0,0.0,0.0,0.0,0.94426227,0.0,0.92903227,0.92903227,0.92903227,0.92903227,0.0,0.9142857,0.9142857,0.9142857,0.0,0.0,0.9,0.9,0.9,0.9,0.9,0.9,0.9,0.9,0.9,0.9,0.9,0.9,0.9,0.8727273,0.9,0.8727273,0.8727273,0.8727273,0.9,0.8597015,0.8597015,0.8597015,0.8597015,0.8597015,0.8727273,0.8597015,0.8597015,0.8597015,1.2521739,0.8597015,0.8597015,0.8597015,0.8727273,0.8727273,0.8727273,0.8597015,0.8597015,0.8597015,0.8727273,0.8727273,0.8727273,0.8727273,0.8727273,0.8727273,0.8727273,0.8597015,0.8597015,0.8597015,0.8597015,0.84705883,0.8597015,0.8597015,0.8597015,0.8597015,0.8597015,0.8597015,0.8597015,0.8597015,0.8597015,0.8597015,0.8597015,0.8597015,0.8597015,0.8597015,0.8597015,0.8597015,0.8597015,0.8597015,0.8597015,0.8597015,0.8597015,0.8597015,0.8597015,0.8597015,0.8597015,0.8597015,0.8597015,0.8597015,0.8597015,0.8597015,0.8597015,0.8597015,0.8597015,0.8597015,0.8597015,0.8597015,0.8727273,0.8597015,0.8597015,0.8727273,0.8727273,0.8727273,0.8727273,0.8727273,0.8727273,0.8727273,0.8727273,0.8727273,0.8727273,0.8861538,0.8861538,0.8861538,0.8861538,0.8861538,0.8861538,0.8861538,0.8861538,0.8861538,0.8861538,0.8727273,0.8861538,0.8861538,0.8861538,0.8861538,0.0,0.0,0.8861538,0.0,0.0,0.0,0.0,0.0,0.0,0.0,0.0,0.0,0.0,0.8727273,0.9142857,0.0,0.0,0.0,0.94426227,0.94426227,0.94426227,0.94426227,0.94426227,0.0,0.99310344,0.99310344,1.3395349,0.0,0.0,0.0,0.0,1.0285715,1.0285715,1.0285715,1.0285715,1.0285715,1.0285715,1.0285715,1.0285715,1.0285715,1.0285715,1.0285715,1.0285715,0.0,0.0,0.0,0.0,0.0,1.8580645,1.8580645,1.8580645,1.8,1.8,1.8,1.8,1.8,1.8,1.8,1.8,1.8,1.8,1.8,1.8,1.8,1.8,1.8,1.8,1.8,1.8,1.8,1.8,1.8580645,1.8,1.8,1.8,1.8,1.8,1.8,1.8,1.8,1.8,1.8,1.8,1.8,1.8,1.8,1.8,1.8580645,1.8580645,1.8580645,1.8580645,1.8580645,1.8580645,1.8580645,1.8580645,1.8580645,1.8580645,1.8580645,1.8580645,1.8580645,1.8580645,1.8580645,1.8580645,1.8580645,1.8580645,1.8580645
0.0,0.0,1.44,1.44,1.44,1.4769231,0.0,0.0,0.0,0.0,0.0,0.0,1.6941177,0.0,1.6457143,1.6457143,0.0,0.0,1.6,0.0,0.0,0.0,1.6,0.0,0.0,0.0,1.6457143,1.6457143,1.6457143,0.0,0.0,1.6457143,1.6457143,1.6457143,1.6457143,1.6457143,1.6457143,1.6457143,1.6457143,1.6457143,1.6457143,1.6,1.6941177,1.6457143,1.6,1.6,1.5567567,1.5567567,1.5567567,1.6,1.6,1.6,1.6,1.6,1.6,1.6,1.6,1.6,1.6,1.6,1.6,1.6,1.5567567,1.5567567,1.5567567,1.6,1.6,1.6,1.6,1.6,1.6,1.6,1.5567567,1.5567567,1.5567567,1.5567567,1.5567567,1.5567567,1.5567567,1.5567567,1.6,1.5567567,1.5567567,1.5567567,1.5567567,1.5157895,1.5157895,1.5567567,1.5567567,1.5567567,1.5567567,1.5567567,1.5567567,1.5157895,1.5157895,1.5157895,1.5567567,1.5567567,1.5567567,1.5567567,1.5567567,1.5567567,1.5567567,1.5567567,1.5567567,1.5567567,1.5567567,1.5567567,1.5567567,1.6,1.6,1.5567567,2.1333334,2.1333334,2.1333334,0.0,0.0,0.0,0.0,14.4,2.2153847,2.304,2.2153847,2.2153847,2.2153847,2.304,2.2153847,2.2153847,2.2153847,2.2153847,2.2153847,2.2153847,2.2153847,2.2153847,2.2153847,2.2153847,2.2153847,2.2153847,2.2153847,2.2153847,2.2153847,2.2153847,2.2153847,2.2153847,2.2153847,2.2153847,2.2153847,2.2153847,2.2153847,2.2153847,2.2153847,2.2153847,2.2153847,2.2153847,2.2153847,2.2153847,2.2153847,2.2153847,2.2153847,2.2153847,2.2153847,2.2153847,2.2153847,2.2153847,2.2153847,2.2153847,2.2153847,2.2153847,2.2153847,2.2153847,0.0,0.0,2.304,2.304,0.0,2.2153847,2.2153847,0.0,0.0,0.0,0.0,0.0,0.0,1.92,0.0,1.8580645,1.8580645,0.0,0.0,0.0,0.0,0.0,0.0,0.0,0.0,0.0,0.0,0.0,0.0,0.0,0.0,0.0,0.0,0.0,0.0,0.0,0.0,0.0,0.0,0.0,0.0,0.0,0.0,0.0,0.0,0.0,0.0,0.94426227,0.0,0.92903227,0.92903227,0.92903227,0.0,0.0,0.0,0.0,0.9142857,0.9142857,0.9142857,0.0,0.9,0.9,0.9,0.9,0.9,0.9,0.9,1.0105263,0.9,0.9,0.9,0.9,0.9,0.9,0.9,0.9,0.9,0.9,0.9,0.8597015,0.8597015,0.8597015,0.8597015,0.8727273,0.8597015,0.8597015,0.8597015,0.8597015,0.8597015,0.8597015,0.84705883,0.8727273,0.8597015,0.8597015,0.8597015,0.8597015,0.8597015,0.8727273,0.8727273,0.8597015,0.8597015,0.8597015,0.8597015,0.8597015,0.8597015,0.8597015,0.8597015,0.8597015,0.8597015,0.8597015,0.8597015,0.8597015,0.8597015,0.8597015,0.8597015,0.8597015,0.8597015,0.8597015,0.8597015,0.8597015,0.8597015,0.8597015,0.8597015,0.8597015,0.8597015,0.8597015,0.8597015,0.8597015,0.8597015,0.8597015,0.8597015,0.8597015,0.8597015,0.8597015,0.8597015,0.8597015,0.8597015,0.8597015,0.8597015,0.8597015,0.8597015,0.8597015,0.8597015,0.8597015,0.8597015,0.8597015,0.8597015,0.8727273,0.84705883,0.8727273,0.8727273,0.8727273,0.8727273,0.8727273,0.8727273,0.8727273,0.8727273,0.8727273,0.8727273,0.8727273,0.8861538,0.8861538,0.8861538,0.8861538,0.8861538,0.8861538,0.8861538,0.8861538,0.8861538,0.8861538,0.8861538,0.8861538,0.8861538,0.0,0.0,0.8861538,0.0,0.0,0.0,0.0,0.0,0.0,1.0105263,0.0,0.0,0.0,0.8727273,0.0,0.8597015,0.0,0.0,0.92903227,0.0,0.94426227,0.94426227,0.96,0.0,1.0105263,0.0,0.0,0.0,0.0,0.0,1.0285715,1.0285715,1.0285715,1.0285715,1.0285715,1.0285715,1.0285715,1.0285715,1.0285715,1.0285715,1.0285715,1.0285715,1.0285715,1.0285715,0.0,0.0,0.0,0.0,1.8580645,1.8580645,1.8580645,0.0,1.8,1.8,1.8,1.8,1.8,1.8,1.8,1.8,1.8,1.8,1.8,1.8,1.8,1.8,1.8,1.8,1.8,5.76,1.8,0.99310344,1.8,1.8,1.8,1.8,1.8,1.8,1.8,1.8,1.8,1.8,1.8,1.8,1.8,1.8,1.8,1.8580645,1.8580645,1.8,1.8,1.8580645,1.8580645,1.8580645,1.8580645,1.8580645,1.8580645,1.8580645,1.8580645,1.8580645,1.8580645,1.8580645,1.8580645,1.8580645,1.8580645,1.8580645
0.0,1.4769231,0.0,1.44,1.44,0.0,0.0,0.0,0.0,0.0,0.0,0.0,0.0,0.0,1.6457143,1.6457143,0.0,0.0,1.6,0.0,0.0,0.0,0.0,0.0,0.0,0.0,0.0,0.0,1.6457143,1.6457143,1.6457143,1.6457143,1.6457143,1.6457143,1.6457143,1.6457143,1.6457143,1.6457143,1.6457143,1.6,1.6,1.6,1.6941177,1.6457143,1.6,1.6,1.5567567,1.6,1.6,1.6,1.6,1.6,1.6,1.6,1.6,1.6,1.6,1.6,1.6,1.6,1.6,1.6,1.5567567,1.5567567,1.5567567,1.5567567,1.5567567,1.6,1.6,1.6,1.6,1.6,1.5567567,1.5567567,1.5567567,1.5567567,1.5567567,1.5567567,1.5567567,1.5567567,1.5567567,1.5567567,1.5567567,1.5567567,1.6941177,1.5157895,1.5567567,1.5567567,1.5567567,1.5567567,1.5567567,1.5567567,1.5567567,1.5157895,1.5157895,1.5157895,1.5567567,1.5567567,1.5567567,1.5567567,1.5567567,1.5567567,1.5567567,1.5567567,1.5567567,1.5567567,1.5567567,1.5567567,1.5567567,1.5567567,1.6,1.5567567,2.1333334,2.1333334,0.0,0.0,0.0,2.2153847,2.2153847,14.4,2.2153847,2.2153847,2.1333334,2.2153847,2.2153847,2.304,2.2153847,2.2153847,2.2153847,2.2153847,2.2153847,2.2153847,2.2153847,2.2153847,2.2153847,2.1333334,2.2153847,2.2153847,2.2153847,2.2153847,2.2153847,2.2153847,2.2153847,2.2153847,2.2153847,2.2153847,2.2153847,2.2153847,2.2153847,2.2153847,2.2153847,2.2153847,2.2153847,2.2153847,2.2153847,2.2153847,2.2153847,2.2153847,2.2153847,2.2153847,2.2153847,2.2153847,2.2153847,2.2153847,2.2153847,2.2153847,2.2153847,2.2153847,2.2153847,2.2153847,2.2153847,0.0,2.304,2.304,0.0,2.2153847,2.2153847,2.304,0.0,0.0,0.0,0.0,0.0,1.92,0.0,1.8580645,0.0,0.0,0.0,0.0,0.0,0.0,0.0,0.0,0.0,0.0,0.0,0.0,0.0,0.0,0.0,0.0,0.0,0.0,0.0,0.0,0.0,0.0,0.0,0.0,0.0,0.0,0.0,0.0,0.0,0.0,0.94426227,0.94426227,0.94426227,0.0,0.92903227,0.92903227,0.0,0.9142857,0.9142857,0.9142857,0.9142857,0.0,0.9142857,0.0,0.0,0.9,0.9,0.9,0.9,0.9,0.9,0.9,0.9,0.9,0.9,0.9,0.9762712,0.9762712,0.8727273,0.9,0.9,0.9,0.9,0.9,0.8597015,0.8597015,0.8597015,0.8727273,0.8597015,0.8597015,0.8597015,0.8597015,0.8597015,0.8597015,0.84705883,0.8597015,0.8597015,0.8597015,0.8597015,0.8597015,0.8597015,0.8597015,0.8597015,0.8597015,0.8597015,0.8597015,0.8597015,0.8597015,0.8597015,0.8597015,0.8597015,0.8597015,0.8597015,0.8597015,0.8597015,0.8597015,0.8597015,0.8597015,0.8597015,0.8597015,0.8597015,0.8597015,0.8597015,0.8597015,0.8597015,0.8597015,0.8597015,0.8597015,0.8597015,0.8597015,0.8597015,0.8597015,0.8597015,0.8597015,0.8597015,0.8597015,0.8597015,0.84705883,0.84705883,0.84705883,0.84705883,0.8597015,0.8597015,0.8597015,0.8597015,0.8597015,0.8597015,0.8597015,0.8597015,0.8597015,0.8597015,0.8727273,0.84705883,1.5157895,0.8727273,0.8727273,0.8727273,0.8727273,0.8727273,0.8727273,0.8727273,0.8727273,0.8727273,0.8727273,0.8727273,0.8727273,0.8727273,0.8861538,0.8727273,0.8861538,0.8861538,0.8861538,0.8861538,0.8861538,0.8861538,0.8861538,0.8861538,0.0,0.0,0.8861538,0.0,0.0,0.0,0.0,0.0,0.0,0.0,0.0,0.0,0.8861538,0.0,0.0,0.8597015,0.0,0.0,0.92903227,0.92903227,0.94426227,0.94426227,9.6,0.0,0.0,0.0,0.0,0.0,0.0,0.0,0.0,0.0,1.0285715,1.0285715,1.0285715,1.0285715,1.0285715,1.0285715,1.0285715,1.0285715,1.0285715,1.0285715,1.0285715,1.0285715,1.0285715,0.0,0.0,0.0,0.0,1.8580645,1.8580645,1.8580645,1.8,1.8,1.8,1.8,7.2,1.2,1.8,1.8,1.8,1.8,1.8,1.8,1.8,1.8,1.8,1.8,5.76,5.76,1.8,1.8,1.8,1.8,1.8,1.8,1.8,1.8,1.8,1.8,1.8,1.8,1.8,1.8,1.8,1.8,1.8,1.8,1.8580645,1.8,0.9762712,1.8580645,1.8580645,1.8580645,1.8580645,1.8580645,1.8580645,1.8580645,1.8580645,1.8580645,1.8580645,1.8580645,1.8580645,1.8580645,1.8580645,1.8580645
0.0,1.4769231,0.0,1.44,1.44,1.44,1.6,0.0,0.0,0.0,0.0,0.0,0.0,0.0,1.5157895,0.0,1.6457143,0.0,1.6,1.6,0.0,0.0,1.6,1.6,0.0,0.0,1.5157895,0.0,0.0,1.6,1.6,1.6457143,1.6,1.6457143,1.6457143,1.6457143,1.6457143,1.6457143,1.6457143,1.6,1.6,1.6457143,1.6941177,1.6457143,1.6,1.6,1.6,1.6,1.5567567,1.6,1.6,1.6,1.6,1.6,1.6,1.6,1.6,1.6,1.6,1.6,1.6,1.6,1.6,1.5567567,1.5567567,1.5567567,1.5567567,1.6,1.6,1.6,1.6,1.6,1.5567567,1.5567567,1.5567567,1.5567567,1.5567567,1.5567567,1.5567567,1.5567567,1.5567567,1.5567567,1.6,1.5567567,1.6457143,1.5567567,1.5567567,1.5567567,1.5567567,1.5567567,1.5567567,1.5567567,1.5567567,1.5157895,1.5157895,1.5157895,1.5567567,1.5567567,1.5567567,1.5567567,1.5567567,1.5567567,1.5567567,1.5567567,1.5567567,1.5567567,1.5567567,1.5567567,1.5567567,1.5567567,1.6,1.6,2.1333334,2.1333334,0.0,2.2153847,0.0,2.2153847,2.1333334,2.2153847,2.2153847,2.2153847,2.2153847,2.2153847,2.2153847,2.304,2.2153847,1.44,2.2153847,2.2153847,2.2153847,2.2153847,2.2153847,2.2153847,2.1333334,2.1333334,2.1333334,2.2153847,2.2153847,2.2153847,2.2153847,2.2153847,2.2153847,2.2153847,2.2153847,2.2153847,2.2153847,2.2153847,2.304,2.2153847,2.2153847,2.2153847,2.2153847,2.2153847,2.2153847,2.2153847,2.2153847,2.2153847,2.2153847,2.2153847,2.2153847,2.2153847,2.2153847,2.2153847,2.2153847,2.2153847,2.2153847,2.2153847,2.2153847,2.2153847,2.1333334,2.2153847,2.304,2.304,0.0,2.2153847,2.2153847,2.2153847,0.0,0.0,0.0,0.0,0.0,1.92,0.0,0.0,0.0,0.0,0.0,0.0,0.0,0.8347826,0.0,0.0,0.0,0.0,0.0,0.0,0.0,0.0,0.0,0.0,0.0,0.0,0.0,0.0,0.0,0.0,0.0,0.0,0.0,0.0,0.0,0.0,0.0,0.0,0.94426227,0.94426227,0.94426227,0.0,0.92903227,0.92903227,0.0,0.0,0.0,0.0,0.9142857,0.9142857,0.0,0.0,0.0,0.9,0.9,0.9,0.9,0.9,0.9,0.9,0.9,0.8861538,0.9,0.8861538,0.9762712,0.9762712,0.8727273,0.8861538,0.8597015,0.9,0.9,0.8597015,0.768,0.8597015,0.8727273,0.8727273,0.8727273,0.8597015,0.8597015,0.8597015,0.8597015,0.8597015,0.8597015,0.8597015,0.8597015,0.8597015,0.8597015,0.8597015,0.8597015,0.8597015,0.8597015,0.8597015,0.8597015,0.8597015,0.8597015,0.8597015,0.8597015,0.8597015,0.8597015,0.8597015,0.8597015,0.8597015,0.8597015,0.8597015,0.8597015,0.8597015,0.8597015,0.8597015,0.8597015,0.8597015,0.8597015,0.8597015,0.8597015,0.8597015,0.8597015,0.8597015,0.8597015,0.8597015,0.8597015,0.8597015,0.8597015,0.8597015,0.8597015,0.0,0.8597015,0.84705883,0.84705883,0.84705883,0.84705883,0.84705883,0.8597015,0.8597015,0.8597015,0.8597015,0.8597015,0.8597015,0.8597015,0.8597015,0.8597015,0.8727273,0.84705883,0.8727273,0.8727273,0.8727273,0.8727273,0.8727273,0.8727273,0.8727273,0.8727273,0.8727273,0.8727273,0.8727273,0.8727273,0.8727273,0.8727273,0.8727273,0.8727273,0.8727273,0.8861538,0.8861538,0.8861538,0.8861538,0.8861538,0.8861538,0.8861538,0.8861538,0.8861538,0.0,0.0,0.0,0.0,0.0,0.0,0.0,0.0,0.0,0.0,0.0,0.0,0.8597015,0.92903227,0.92903227,0.92903227,0.92903227,0.92903227,0.94426227,0.0,9.6,0.0,0.0,1.3395349,0.0,0.0,0.0,0.0,0.0,1.0105263,1.0285715,1.0285715,1.0285715,1.0285715,1.0285715,1.0285715,1.0285715,1.0285715,1.0285715,1.0285715,1.0285715,1.0285715,1.0285715,0.0,0.0,0.0,1.8580645,1.8580645,1.8580645,2.057143,2.057143,1.8,1.8,1.8,7.2,1.2,1.8,1.8,1.8,1.8,1.8,1.8,2.7428572,1.8,1.8,1.8,1.8,1.7454545,5.76,1.7454545,1.8,1.8,1.8,1.8,1.8,1.8,1.8,1.8,1.8,1.8,1.8,1.8,1.8,1.8,1.8,1.8580645,1.8580645,1.8,0.9762712,1.8,1.8580645,1.8580645,1.8580645,1.8580645,1.8580645,1.92,1.92,1.8580645,1.8580645,1.8580645,1.8580645,1.8580645,1.8580645,1.8580645
0.0,1.4769231,0.0,1.44,1.44,1.44,1.5157895,0.0,0.0,0.0,0.94426227,0.0,2.5043478,0.0,0.0,1.4769231,0.0,0.0,0.0,1.6,0.0,1.5567567,1.6,1.6,1.6,0.0,0.0,0.0,1.6,1.6,1.6,1.6,1.6,1.6457143,1.6457143,1.6457143,1.6457143,1.6457143,1.6457143,1.6,1.6457143,1.6457143,1.6457143,1.6457143,1.6,1.6,1.6,1.6,1.6,1.6,1.6,1.6,1.6,1.6,1.6,1.6,1.6,1.6,1.6,1.6,1.5567567,1.5567567,1.5567567,1.5567567,1.5567567,1.5567567,1.5567567,1.6,1.5567567,1.6,1.6,1.5567567,1.5567567,1.5567567,1.5567567,1.5567567,1.5567567,1.5567567,1.5567567,1.5567567,1.6,1.6,1.6,1.5567567,1.6,1.5567567,1.5567567,1.5567567,1.5567567,1.5567567,1.5567567,1.5567567,1.5567567,1.5567567,1.5567567,1.5567567,1.5567567,1.5567567,1.5567567,1.5567567,1.5567567,1.5567567,1.5567567,1.5567567,1.5567567,1.5567567,1.5567567,1.5567567,1.5567567,1.5567567,1.6,1.6,1.5567567,2.2153847,2.2153847,2.2153847,2.2153847,2.2153847,2.2153847,2.2153847,2.2153847,2.2153847,2.2153847,2.2153847,2.2153847,2.2153847,2.2153847,2.2153847,2.2153847,2.2153847,2.2153847,2.2153847,2.2153847,2.2153847,2.2153847,2.2153847,2.1333334,2.2153847,2.304,2.304,2.304,2.2153847,2.2153847,2.2153847,2.2153847,2.2153847,2.2153847,2.2153847,2.2153847,2.2153847,2.2153847,2.2153847,2.2153847,2.2153847,2.2153847,2.2153847,2.2153847,2.2153847,2.2153847,2.2153847,2.2153847,2.2153847,2.2153847,2.2153847,2.2153847,2.2153847,2.2153847,2.2153847,2.2153847,2.2153847,2.2153847,2.2153847,2.2153847,2.2153847,2.2153847,2.2153847,2.2153847,2.2153847,0.0,0.0,0.0,0.0,0.0,0.0,0.0,0.0,0.0,0.0,0.0,0.0,0.0,0.0,0.0,0.0,0.0,0.0,1.3090909,0.0,0.0,0.0,0.0,0.0,0.0,0.0,0.0,0.0,0.0,0.0,0.0,0.0,0.0,0.0,0.0,0.0,0.0,0.0,0.0,0.0,0.0,0.0,0.92903227,0.92903227,0.0,0.0,0.0,0.0,0.9,0.9142857,0.0,0.0,0.9,0.9,0.9,0.9,0.9,0.9,0.9,0.9,0.8861538,0.8861538,0.8861538,0.8861538,0.8861538,0.8861538,0.9,0.8861538,0.9,0.9,0.8597015,0.8597015,0.8597015,0.8597015,0.8727273,0.8727273,0.8727273,0.8597015,0.8597015,0.8597015,0.8597015,0.8597015,0.8597015,0.8597015,0.8597015,0.8597015,0.8597015,0.8597015,0.8597015,0.8597015,0.8597015,0.8597015,0.8597015,0.8597015,0.8597015,0.8597015,0.8597015,0.8597015,0.8597015,0.8597015,0.8597015,0.8597015,0.8597015,0.8597015,0.84705883,0.8597015,0.8597015,0.8597015,0.8597015,0.8597015,0.8597015,0.8597015,0.8597015,0.8597015,0.8597015,0.8597015,0.8597015,0.8597015,0.8727273,0.8597015,0.8597015,0.8597015,0.8597015,0.8597015,0.84705883,0.84705883,0.84705883,0.84705883,0.84705883,0.84705883,0.8597015,0.8597015,0.8597015,0.8597015,0.8597015,0.8597015,0.8597015,0.8597015,0.8597015,0.8597015,0.84705883,0.84705883,0.8597015,0.8597015,0.8727273,0.8727273,0.8727273,0.8727273,0.8727273,0.8727273,0.8727273,0.8727273,0.8727273,0.8727273,0.8727273,0.8727273,0.8727273,0.8727273,0.8727273,0.8727273,0.8861538,0.8861538,0.8861538,0.8861538,0.8861538,0.8861538,0.8861538,0.0,0.0,0.0,0.0,0.0,0.0,0.0,0.0,0.9,0.0,0.9142857,0.0,0.8597015,0.92903227,0.92903227,0.92903227,0.92903227,0.92903227,0.94426227,0.0,9.6,0.0,0.0,0.0,0.0,0.0,0.0,0.0,0.0,1.92,1.92,1.0285715,1.0285715,1.0285715,1.0285715,1.0285715,1.0285715,1.0285715,1.0285715,1.0285715,1.0285715,1.0285715,1.0285715,1.0285715,0.0,0.0,1.8580645,1.8580645,1.8580645,19.2,19.2,1.8,1.8,1.8,1.8,1.8,1.8,1.2,1.8,1.8,1.8,1.8,2.7428572,2.7428572,1.8,1.8,1.7454545,1.8,5.76,1.8,1.8,1.8,1.8,1.8,1.8,1.8,1.8,1.8,1.8,1.8,1.8,1.8,1.8,1.8,1.8580645,1.8580645,1.8580645,1.8580645,1.8580645,1.8580645,1.8580645,1.8580645,1.8580645,1.8580645,1.8580645,1.92,1.8580645,1.8580645,1.8580645,1.8580645,1.8580645,1.8580645,1.92,1.92
0.0,0.0,0.0,0.0,1.44,0.0,0.0,0.0,1.5567567,1.5567567,0.0,0.0,0.0,0.0,0.0,1.4769231,0.0,0.0,0.0,1.6,0.0,1.5567567,0.0,1.6,1.6,0.0,0.0,0.0,1.6,1.6,0.0,0.0,0.0,1.6457143,1.6457143,1.6457143,1.6457143,1.6457143,1.6457143,1.6457143,1.6457143,1.6457143,1.6457143,1.6457143,1.6,1.6,1.6,1.6,1.6,1.6,1.6,1.6,1.6,1.6,1.6,1.6,1.6,1.6,1.6,1.6,1.5567567,1.5567567,1.5567567,1.5567567,1.5567567,1.5567567,1.5567567,1.6,1.6,1.6,1.6,1.5567567,1.5567567,1.5567567,1.5567567,1.5567567,1.5567567,1.5567567,1.5567567,1.5567567,1.6,1.6,1.5567567,1.5567567,1.5567567,1.5567567,1.5567567,1.5567567,1.5567567,1.5567567,1.5567567,1.5567567,1.5567567,1.5567567,1.5567567,1.5567567,1.5567567,1.5567567,1.5567567,1.5567567,1.5567567,1.5567567,1.5567567,1.5567567,1.5567567,1.5567567,1.5567567,1.5567567,1.5567567,1.5567567,1.5567567,1.6,1.5567567,2.2153847,2.2153847,2.2153847,2.2153847,2.2153847,2.1333334,2.2153847,2.2153847,2.2153847,2.2153847,2.2153847,2.2153847,2.2153847,2.2153847,2.2153847,2.2153847,2.2153847,2.2153847,2.2153847,2.2153847,2.2153847,2.2153847,2.2153847,2.2153847,2.2153847,2.2153847,2.2153847,2.2153847,2.2153847,2.2153847,2.2153847,2.2153847,2.2153847,2.2153847,2.304,2.2153847,2.2153847,2.2153847,2.2153847,2.2153847,2.2153847,2.2153847,2.2153847,2.2153847,2.2153847,2.2153847,2.2153847,2.2153847,2.2153847,2.2153847,2.2153847,2.2153847,2.2153847,2.2153847,2.2153847,2.2153847,2.1333334,2.2153847,2.2153847,2.2153847,2.2153847,2.2153847,2.2153847,2.2153847,2.2153847,0.0,0.0,0.0,0.0,0.0,0.0,0.0,1.8580645,1.8580645,1.8580645,0.0,0.0,0.0,0.0,0.0,0.0,0.0,0.0,1.3395349,0.0,0.0,0.0,0.0,0.0,0.0,0.0,0.0,0.0,0.0,0.0,0.0,0.0,0.0,0.0,0.0,0.0,0.0,1.2,1.2,0.0,0.0,0.0,0.0,0.92903227,0.0,0.0,0.0,0.9,0.9,0.9,0.9,0.9,0.0,0.9,0.9,0.9,0.9,0.9,0.9,0.9,0.9,0.8727273,0.9,0.8727273,0.8727273,0.8861538,0.8861538,0.9,0.9,0.8597015,0.8597015,0.8597015,0.8727273,0.8727273,0.8727273,0.8727273,0.8727273,0.8597015,0.8597015,0.8597015,0.8597015,0.8597015,0.8597015,0.8597015,0.8597015,0.8597015,0.8597015,0.8597015,0.8597015,0.8597015,0.8597015,0.8597015,0.8597015,0.8597015,0.8597015,0.8597015,0.8597015,0.8597015,0.8597015,0.8597015,0.8597015,0.84705883,0.84705883,0.84705883,0.84705883,0.84705883,0.8597015,0.8597015,0.84705883,0.84705883,0.84705883,0.8597015,0.8597015,0.8597015,0.8597015,0.8597015,0.8597015,0.84705883,0.84705883,0.8597015,0.8727273,0.8597015,0.8597015,0.8597015,0.8597015,0.8597015,0.8597015,0.8597015,0.8597015,0.8597015,0.8597015,0.8597015,0.8597015,0.8597015,1.5157895,1.5157895,0.84705883,0.84705883,0.8597015,0.8597015,0.8597015,0.8597015,0.8597015,0.8597015,0.8597015,0.8727273,0.8727273,0.8727273,0.8727273,0.8727273,0.8727273,0.8727273,0.8727273,0.8727273,0.8727273,0.8727273,0.8727273,0.8727273,0.8727273,0.8727273,0.8861538,0.8861538,0.9142857,0.8861538,0.8861538,0.8861538,0.92903227,0.0,0.0,0.0,0.0,0.0,0.0,0.9,0.0,0.9142857,0.9142857,0.9142857,0.9142857,0.0,0.0,1.2521739,1.2521739,0.92903227,0.92903227,0.94426227,0.0,9.6,0.0,0.0,0.0,0.0,0.0,0.0,0.0,0.0,0.9762712,0.0,1.0285715,1.0285715,1.0285715,1.0285715,1.0285715,1.0285715,1.0285715,1.0285715,1.0285715,1.0285715,1.0285715,1.0285715,1.0285715,1.0285715,0.0,1.8580645,1.8580645,0.0,2.057143,1.8,1.5157895,1.8,1.8,2.5043478,1.8,1.8,1.8,1.8,1.8,1.8,1.8,1.28,1.8,11.52,1.8,1.8,1.8,1.8,1.8,1.8,1.8,1.8,1.8,1.8,1.8,1.8,1.8,1.8,1.8,1.8,1.8,1.8,1.8,1.8,1.8580645,1.8580645,1.8580645,1.8580645,1.8580645,1.2,1.8580645,1.8580645,1.8580645,1.92,1.92,1.8580645,1.8580645,1.8580645,1.92,1.8580645,1.92,1.92,1.92
0.0,0.0,0.0,0.0,0.0,0.0,0.0,0.0,0.0,1.5567567,0.0,0.0,0.0,0.0,0.0,1.4769231,0.0,0.0,0.0,1.6,0.0,1.5567567,0.0,1.6,1.6,0.0,0.0,0.0,1.6,1.6457143,0.0,1.6457143,1.6457143,1.6457143,1.6457143,1.6457143,1.6457143,1.6457143,1.6457143,1.6457143,1.6457143,1.6457143,1.6457143,1.6457143,1.6457143,1.6457143,1.6,1.6941177,1.6,1.6,1.6,1.6,1.6,1.6,1.6,1.6,1.6,1.6,1.6,1.6,1.5567567,1.6,1.5567567,1.5567567,1.5567567,1.5567567,1.5567567,1.6,1.6,1.6,1.6,1.5567567,1.5567567,1.5567567,1.5567567,1.5567567,1.5567567,1.5567567,1.5567567,1.5567567,1.6,1.5567567,1.5567567,1.5567567,1.5567567,1.5567567,1.5567567,1.5567567,1.5567567,1.5567567,1.5567567,1.5567567,1.5567567,1.5567567,1.5567567,1.5567567,1.5567567,1.5567567,1.5567567,1.5567567,1.5567567,1.5567567,1.5567567,1.5567567,1.5567567,1.5567567,1.5567567,1.5567567,1.5567567,1.5567567,1.5567567,1.5567567,2.2153847,2.2153847,2.2153847,2.2153847,2.2153847,2.304,2.2153847,2.2153847,2.2153847,2.2153847,2.2153847,2.2153847,2.2153847,2.2153847,2.2153847,2.2153847,2.2153847,2.2153847,2.2153847,2.2153847,2.2153847,2.2153847,2.2153847,2.2153847,2.2153847,2.2153847,2.2153847,2.2153847,2.2153847,2.2153847,2.2153847,2.2153847,2.2153847,2.2153847,2.2153847,2.304,2.2153847,2.2153847,2.2153847,2.2153847,2.2153847,2.2153847,2.2153847,2.2153847,2.2153847,2.2153847,2.2153847,2.2153847,2.2153847,2.304,2.2153847,2.2153847,2.2153847,2.2153847,2.2153847,2.2153847,2.2153847,2.2153847,2.2153847,2.2153847,0.0,2.2153847,2.2153847,2.2153847,2.2153847,0.0,0.0,0.0,0.0,0.0,0.0,0.0,0.0,0.0,0.0,0.0,0.0,0.0,0.0,0.0,0.0,0.0,0.0,1.3395349,0.0,0.0,0.0,0.0,0.0,0.0,0.0,0.0,0.0,0.0,0.0,0.0,0.0,0.0,0.0,0.0,0.0,0.0,0.0,0.0,0.0,0.0,0.0,0.0,0.0,0.0,0.0,0.0,0.9,0.9,0.9,0.9,0.0,0.0,0.9,0.9,0.9,0.9,0.9,0.9,0.9,0.8727273,0.8727273,0.8727273,0.8727273,0.9,0.9,0.8597015,0.8597015,0.8727273,0.8727273,0.8727273,0.8727273,0.8727273,0.8727273,0.8727273,0.8727273,0.8597015,0.8597015,0.8597015,0.8597015,0.8597015,0.8597015,0.8597015,0.8597015,0.8597015,0.8597015,0.8597015,0.8597015,0.8597015,0.8597015,0.8597015,0.8597015,0.8597015,0.8597015,0.8597015,0.8597015,0.8597015,0.8597015,0.8597015,0.8597015,0.8597015,0.84705883,0.84705883,0.8597015,0.8597015,0.8597015,0.8597015,0.8597015,0.8597015,0.84705883,0.84705883,0.84705883,0.84705883,0.8597015,0.8597015,0.8597015,0.8597015,0.8597015,0.84705883,0.84705883,0.8597015,0.8597015,0.8597015,0.8597015,0.8597015,0.8597015,0.8597015,0.8597015,0.8597015,0.8597015,0.8597015,0.8597015,0.8597015,0.8597015,0.8597015,0.8597015,1.5157895,1.5157895,0.8597015,0.8597015,0.8597015,0.8597015,0.8597015,0.8597015,0.8597015,0.8597015,0.8597015,0.8727273,0.8727273,0.8727273,0.8727273,0.8727273,0.8727273,0.8727273,0.8727273,0.8727273,0.8727273,0.8727273,0.8727273,0.8727273,0.8727273,0.8727273,0.8861538,0.8861538,0.8861538,0.8861538,0.9,0.8861538,0.9142857,0.9142857,0.0,0.9,0.9,0.9,0.9,0.9,0.9142857,0.9142857,0.9142857,0.9142857,0.0,0.0,9.6,1.2521739,0.92903227,0.92903227,9.6,9.6,9.6,0.0,0.9762712,0.0,0.9762712,0.9762712,0.0,0.0,0.0,0.0,0.0,1.0105263,1.0285715,1.0285715,1.0285715,1.0285715,1.0285715,1.0285715,1.0285715,1.0285715,1.0285715,1.0285715,1.0285715,1.0285715,1.0285715,0.0,1.8580645,0.0,0.0,0.0,0.0,0.0,1.8,4.8,1.8,1.8,1.8,1.8,1.8,1.8,1.8,1.8,1.28,1.8,1.8,1.8,1.8,1.8,1.8,1.8,1.8,1.8,1.8,1.7454545,1.8,1.8,1.8,1.8,1.8,1.8,1.8,1.8,1.8,1.8,1.8,1.8580645,1.8580645,1.8580645,1.8580645,1.8580645,1.8580645,1.8580645,1.8580645,1.8580645,1.8580645,1.92,1.8580645,1.92,1.8580645,1.92,1.92,1.92,1.92,1.92
0.0,0.0,0.0,0.0,19.2,0.0,0.0,0.0,0.0,0.0,0.0,0.0,0.0,1.5567567,0.0,0.0,0.0,0.0,0.0,1.6,1.92,1.5567567,0.0,1.6,0.0,0.0,0.0,0.0,1.6,1.6457143,1.6457143,1.6457143,1.6941177,0.0,1.6457143,1.6457143,1.6941177,1.6457143,1.6457143,1.6457143,1.6457143,1.6457143,1.6457143,1.6457143,1.6457143,1.6457143,1.6941177,1.6941177,1.6,1.6,1.6,1.6,1.6,1.6,1.6,1.6,1.6,1.6,1.6,1.6,1.6,1.6,1.5567567,1.5567567,1.5567567,1.5567567,1.5567567,1.5567567,1.5567567,1.5567567,1.6,1.5567567,1.5567567,1.5567567,1.5567567,1.5567567,1.5567567,1.5567567,1.5567567,1.5567567,1.5567567,1.5567567,1.5567567,1.5567567,1.5567567,1.5567567,1.5567567,1.5567567,1.5567567,1.5567567,1.5567567,1.5567567,1.5567567,1.5567567,1.5567567,1.5567567,1.5567567,1.5567567,1.5567567,1.5567567,1.5567567,1.5567567,1.5567567,1.5567567,1.5567567,1.5567567,1.5567567,1.5567567,1.5567567,1.5567567,1.5567567,1.5567567,2.2153847,2.2153847,2.2153847,2.2153847,2.304,2.2153847,2.2153847,2.2153847,2.2153847,2.2153847,2.2153847,2.2153847,2.2153847,2.2153847,2.2153847,2.2153847,2.2153847,2.2153847,2.2153847,2.2153847,2.2153847,2.2153847,2.2153847,2.2153847,2.1333334,2.2153847,2.2153847,2.2153847,2.2153847,2.2153847,2.2153847,2.2153847,2.2153847,2.2153847,2.2153847,2.304,2.304,2.2153847,2.2153847,2.2153847,2.2153847,2.2153847,2.2153847,2.2153847,2.2153847,2.2153847,2.2153847,2.2153847,2.2153847,2.304,2.2153847,2.2153847,2.2153847,2.2153847,2.2153847,2.2153847,2.2153847,2.2153847,2.2153847,2.2153847,2.2153847,2.2153847,2.2153847,2.2153847,2.2153847,0.0,0.0,0.0,0.0,0.0,0.0,0.0,0.0,0.0,0.0,0.0,0.0,0.0,0.0,0.0,0.0,0.0,1.3395349,0.0,1.44,0.0,1.404878,0.0,0.0,0.0,0.0,0.0,0.0,0.0,0.0,0.0,0.0,0.0,0.0,0.0,0.0,0.0,0.0,0.0,0.0,0.0,0.0,0.0,0.0,0.0,0.0,0.9,0.9,0.9,0.9,0.0,0.0,0.0,0.9,0.9,0.9,0.9,0.9,0.8727273,0.8727273,0.8727273,0.8727273,0.8727273,0.8727273,0.9,0.8597015,0.8597015,0.8597015,0.8727273,0.8727273,0.8727273,0.8861538,0.8861538,0.8597015,0.8597015,0.8727273,0.8597015,0.8597015,0.8597015,0.8597015,0.8597015,0.8597015,0.8597015,0.8597015,0.8597015,0.8597015,0.84705883,0.8597015,0.8597015,0.8597015,0.8597015,0.8597015,0.8597015,0.8597015,0.8597015,0.8597015,0.8597015,0.8597015,0.8597015,0.8597015,0.8597015,0.8597015,0.8597015,0.8597015,0.8597015,0.8597015,0.84705883,0.84705883,0.84705883,0.84705883,0.84705883,0.84705883,0.84705883,0.8597015,0.8597015,0.8597015,0.8597015,0.84705883,0.84705883,0.84705883,0.84705883,0.8597015,0.8597015,0.8597015,0.8597015,0.8597015,0.8597015,0.8597015,0.8597015,0.8597015,0.8597015,0.8597015,0.8597015,0.8597015,0.8597015,0.8597015,0.8597015,0.8597015,0.8597015,0.8597015,0.8597015,0.8597015,0.8597015,0.8597015,0.8597015,0.8597015,0.8597015,0.8597015,0.8727273,0.8727273,0.8727273,0.8727273,0.8727273,0.8727273,0.8727273,0.8727273,0.8727273,0.8727273,0.8727273,0.8727273,0.8727273,0.8861538,0.8861538,0.8861538,0.8861538,0.8861538,0.9,0.9,0.9,0.9,0.9,0.9,0.9,0.9,0.9,0.9,0.9142857,0.0,0.9142857,0.0,0.0,0.0,9.6,9.6,0.92903227,0.92903227,0.0,0.94426227,0.0,0.0,0.9762712,0.9762712,0.0,0.9762712,0.9762712,0.0,0.0,0.0,1.0105263,1.0105263,1.0285715,1.0285715,1.0285715,1.0285715,1.0285715,1.0285715,1.0105263,1.0285715,1.0285715,1.0285715,1.0285715,1.0285715,1.0285715,0.0,1.0472727,0.0,0.0,0.0,1.8580645,0.0,0.0,4.8,1.8,1.8,1.8,1.8,1.8,1.8,1.8,1.8,1.8,1.8,1.8,1.8,1.8,1.8,1.8,1.8,1.8,1.8,1.7454545,1.7454545,1.8,1.8,1.8,1.8,1.8,1.8,1.8,1.8,1.8,1.8,1.8,1.8580645,1.8580645,1.8580645,1.8580645,1.8580645,1.8580645,1.8580645,1.92,1.92,1.92,1.92,1.8580645,1.8580645,1.8580645,1.92,1.8580645,1.8580645,1.8580645,1.92
0.0,1.5567567,0.0,0.0,19.2,19.2,0.0,0.0,0.0,0.0,0.0,0.0,0.0,1.5567567,0.0,0.0,0.0,0.0,0.0,1.92,1.92,1.5567567,0.0,1.6,0.0,0.0,1.5157895,0.0,1.6,1.6457143,0.0,1.6457143,0.0,0.0,0.0,0.0,1.6457143,1.6457143,1.6457143,1.6457143,0.0,0.0,0.0,0.0,1.6457143,1.6457143,1.6457143,1.6,1.6,1.6,1.6,1.6,1.6,1.6,1.6,1.6,1.6,1.6,1.6,1.6457143,1.6,1.6,1.5567567,1.5567567,1.5567567,1.5567567,1.5567567,1.5567567,1.5567567,1.5567567,1.5567567,1.5567567,1.5567567,1.5567567,1.5567567,1.5567567,1.5567567,1.5567567,1.5567567,1.5567567,1.5567567,1.5567567,1.5567567,1.5567567,1.5567567,1.5567567,1.5567567,1.5567567,1.5567567,1.5567567,1.5567567,1.5567567,1.5567567,1.5567567,1.5567567,1.5567567,1.5567567,1.5567567,1.5567567,1.5567567,1.5567567,1.5567567,1.5567567,1.5567567,1.5567567,1.5567567,1.5567567,1.5567567,1.5567567,1.5567567,1.5567567,5.2363634,5.2363634,2.2153847,2.2153847,2.2153847,2.2153847,2.2153847,2.304,2.2153847,2.2153847,2.304,2.304,2.304,2.304,2.2153847,2.2153847,2.2153847,2.2153847,2.2153847,2.2153847,2.2153847,2.2153847,2.2153847,2.1333334,2.2153847,2.2153847,2.2153847,2.2153847,2.304,2.2153847,2.2153847,2.2153847,2.2153847,2.2153847,2.2153847,2.2153847,2.2153847,2.2153847,2.2153847,2.2153847,2.2153847,2.2153847,2.2153847,2.2153847,2.2153847,2.2153847,2.2153847,2.2153847,2.2153847,2.2153847,2.2153847,2.2153847,2.2153847,2.2153847,2.2153847,2.2153847,2.1333334,2.2153847,2.2153847,2.2153847,2.2153847,2.2153847,2.2153847,2.2153847,2.2153847,2.2153847,0.0,0.0,0.0,0.0,0.0,0.0,0.0,0.0,0.0,0.0,0.0,0.0,0.0,0.0,0.0,0.0,0.0,1.3714286,0.0,0.0,0.0,1.404878,0.0,0.0,0.0,0.0,0.0,0.0,0.0,0.0,0.0,0.0,0.0,0.0,0.0,0.0,0.0,0.0,0.0,0.0,0.0,0.0,0.9,0.9,0.0,0.9,0.9,0.9,0.9,0.9,0.0,0.0,0.0,0.9,0.9,0.9,0.9,0.9,0.8727273,0.8727273,0.8727273,0.8727273,0.8727273,0.8727273,0.8727273,0.8727273,0.8597015,0.8597015,0.8597015,0.8597015,0.8727273,0.8727273,0.8861538,0.8861538,0.8861538,0.8597015,0.8597015,0.8597015,0.8597015,0.8597015,0.8597015,0.8597015,0.8597015,0.8597015,0.8597015,0.84705883,0.84705883,0.84705883,0.8597015,0.8597015,0.8597015,0.8597015,0.8597015,0.8597015,0.8597015,0.8597015,0.8597015,0.8597015,0.8597015,0.84705883,0.8597015,0.8597015,0.8597015,0.8597015,0.8597015,0.8597015,0.8597015,0.84705883,0.84705883,0.84705883,0.84705883,0.84705883,0.84705883,0.8597015,0.8597015,0.8597015,0.8597015,0.8597015,0.84705883,0.84705883,0.84705883,0.84705883,0.84705883,0.8597015,0.8597015,0.84705883,0.84705883,0.8597015,0.8597015,0.8597015,0.8597015,0.8597015,0.8597015,0.8597015,0.8597015,0.8597015,0.8597015,0.8597015,0.8597015,0.8597015,0.8597015,0.8597015,0.8597015,0.8597015,0.8597015,0.8597015,0.8727273,0.8727273,0.8727273,0.8727273,0.8727273,0.8727273,0.8727273,0.8727273,0.8727273,0.8727273,0.8727273,0.8727273,0.8727273,0.8727273,0.8861538,0.8861538,0.8861538,0.8861538,0.8861538,0.8861538,0.8861538,0.9,0.9,0.9,0.9,0.9,0.9,0.9,0.9,0.9,0.9,0.9,0.0,0.0,0.0,0.0,9.6,9.6,0.0,0.0,0.0,0.0,0.0,0.0,0.9762712,0.0,0.96,0.96,0.0,0.0,0.0,0.0,1.0105263,1.0105263,1.0285715,1.3090909,1.0285715,1.0285715,1.0285715,1.0285715,1.0105263,1.0285715,1.0285715,1.0285715,1.0285715,1.0285715,1.0285715,0.0,0.0,0.0,0.0,2.2153847,1.8580645,1.8580645,1.8580645,0.0,1.8,1.8,1.8,1.8,1.8,1.8,1.8,1.8,1.8,1.8,1.8,1.8,1.8,1.8,1.8,1.8,1.8,1.7454545,1.7454545,1.7454545,1.8,1.8,1.8,1.8,1.8,1.8,1.8,1.8,1.8,1.8,1.8,1.8580645,1.8580645,1.8580645,1.8580645,1.8580645,1.8580645,1.8580645,1.92,1.92,1.92,1.92,1.8580645,1.8580645,1.8580645,1.8580645,1.8580645,1.8580645,1.8580645,1.8580645
0.0,1.5157895,1.5157895,0.0,19.2,19.2,0.0,0.0,0.0,0.0,0.0,0.0,0.0,1.6,0.0,0.0,0.0,0.0,1.6,1.6,1.92,1.5567567,0.0,1.8580645,0.0,0.0,0.0,0.0,0.0,1.6,1.6,1.6457143,0.0,0.0,0.0,0.0,0.0,0.0,1.4769231,0.0,0.0,0.0,1.6457143,0.0,0.0,0.0,1.6,1.6,1.6,1.6,1.6,1.6,1.6,1.6,1.6,1.6,1.6,1.6,1.6,1.6,1.6,1.6,1.5567567,1.6,1.5567567,1.5567567,1.5567567,1.5567567,1.5567567,1.5567567,1.5567567,1.5567567,1.5567567,1.5567567,1.5567567,1.5567567,1.5567567,1.5567567,1.5567567,1.5567567,1.5567567,1.5567567,1.5567567,1.5567567,1.5567567,1.5567567,1.5567567,1.5567567,1.5567567,1.5567567,1.5567567,1.5567567,1.5567567,1.5567567,1.5567567,1.5567567,1.5567567,1.5567567,1.5567567,1.5567567,1.5567567,1.5567567,1.5567567,1.5567567,1.5567567,1.5567567,1.5567567,1.5567567,1.5567567,1.5567567,1.5567567,2.2153847,2.2153847,2.2153847,2.2153847,2.2153847,2.2153847,2.2153847,2.2153847,2.2153847,2.304,2.304,2.304,2.304,2.304,2.2153847,2.2153847,2.2153847,2.2153847,2.2153847,2.2153847,2.2153847,2.2153847,2.5043478,2.1333334,2.2153847,2.2153847,2.2153847,2.2153847,2.2153847,2.2153847,2.2153847,2.2153847,2.2153847,2.2153847,2.2153847,2.2153847,2.1333334,2.2153847,2.1333334,2.2153847,2.2153847,2.2153847,2.2153847,2.2153847,2.1333334,2.1333334,2.2153847,2.2153847,2.2153847,2.2153847,2.2153847,2.2153847,2.2153847,2.2153847,2.2153847,2.1333334,2.2153847,2.2153847,2.2153847,2.2153847,2.2153847,2.2153847,2.2153847,2.2153847,2.2153847,0.0,0.0,0.0,0.0,0.0,0.0,0.0,0.0,0.0,0.0,0.0,0.0,0.0,0.0,0.0,0.0,0.0,0.0,0.0,0.0,0.0,0.0,0.0,0.0,0.0,0.0,0.0,0.0,0.0,0.0,0.0,0.0,0.0,0.0,0.0,0.94426227,0.94426227,0.0,0.0,0.92903227,0.0,0.0,0.9,0.9,0.9,0.9,0.9,0.9,0.9,0.9,0.9,0.0,0.0,0.0,0.0,0.9,0.9,0.9,0.8727273,0.8727273,0.8727273,0.8727273,0.8727273,0.8727273,0.8727273,0.9,0.8597015,0.8597015,0.8597015,0.8597015,0.8597015,0.8597015,0.8597015,0.8861538,0.8597015,0.8597015,0.8597015,0.8597015,0.8597015,0.8597015,0.8597015,0.8597015,0.8597015,0.8597015,0.84705883,0.84705883,0.84705883,0.84705883,0.84705883,0.84705883,0.8597015,0.84705883,0.84705883,0.8597015,0.8597015,0.8597015,0.8597015,0.8597015,0.8597015,0.84705883,0.84705883,0.84705883,0.8597015,0.8597015,0.8597015,0.8597015,0.8597015,0.8597015,0.8597015,0.84705883,0.84705883,0.84705883,0.84705883,0.84705883,0.8597015,0.8597015,0.8597015,0.8597015,0.84705883,0.84705883,0.84705883,0.84705883,0.84705883,0.84705883,0.84705883,0.84705883,0.84705883,0.84705883,0.84705883,0.84705883,0.84705883,0.84705883,0.8597015,0.8597015,0.8597015,0.8597015,0.8597015,0.8597015,0.8597015,0.8597015,0.8597015,0.8597015,0.8597015,0.8597015,0.8597015,0.8597015,0.8597015,0.8727273,0.8727273,0.8727273,0.8727273,0.8727273,0.8727273,0.8727273,0.8727273,0.8727273,0.8727273,0.8727273,0.8727273,0.8727273,0.8861538,0.8861538,0.8861538,0.8861538,0.8861538,0.8861538,0.8861538,0.8861538,0.8861538,0.8861538,0.9,0.9,0.9,0.9,0.9,0.9,0.9,0.9,0.9,0.9142857,0.9,0.0,0.0,0.0,0.9142857,0.9142857,0.0,0.0,0.0,0.0,0.0,0.0,0.0,0.96,0.96,0.0,0.96,0.0,0.96,0.0,1.0105263,1.0285715,1.3090909,1.0285715,1.0285715,1.0285715,1.0285715,1.0105263,1.0285715,1.0285715,1.0285715,1.0285715,1.0285715,1.0285715,0.0,0.0,0.0,0.0,0.0,1.8580645,1.8580645,1.8580645,0.0,0.0,1.8,1.8,1.8,1.8,1.8,1.8,1.8,1.8,1.7454545,1.8,1.8,1.8,1.8,1.8,1.8,1.8,1.7454545,1.7454545,1.7454545,1.8,1.8,1.8,1.8,1.8,1.8,1.8,1.8,1.8,1.8,1.8,1.8580645,1.8580645,1.8580645,1.8580645,1.8580645,1.8580645,1.8580645,1.8580645,1.92,1.92,1.92,1.92,1.8580645,1.8580645,1.8580645,1.8580645,1.8580645,1.8580645,1.8580645
1.6,0.0,0.0,1.5157895,0.0,0.8347826,0.0,0.0,0.0,1.6,0.0,0.0,0.0,0.0,0.0,1.5157895,0.0,1.6457143,0.0,1.6,1.92,0.0,0.0,0.0,0.0,0.0,1.5567567,0.0,1.6,1.6,1.6,1.6457143,0.0,0.0,0.0,0.0,0.0,0.0,0.0,0.0,0.0,0.0,0.0,0.0,1.6457143,1.6457143,0.0,1.6457143,1.6,1.6457143,1.6457143,1.6,1.6,1.6,1.6,1.6,1.6,1.6,1.6,1.6,1.6,1.6,1.6,1.6,1.6,1.5567567,1.5567567,1.5567567,1.5567567,1.5567567,1.5567567,1.5567567,1.6,1.5567567,1.5567567,1.5567567,1.5567567,1.5567567,1.5567567,1.5567567,1.5567567,1.5567567,1.6,1.6,1.5567567,1.5567567,1.5567567,1.5567567,1.5567567,1.5567567,1.5567567,1.5567567,1.5567567,1.5567567,1.5567567,1.5567567,1.5567567,1.5567567,1.5567567,1.5567567,1.5567567,1.5567567,1.5567567,1.5567567,1.5567567,1.5567567,1.5567567,1.5567567,1.5567567,1.5567567,1.5567567,2.2153847,2.2153847,2.2153847,2.2153847,2.2153847,2.2153847,2.2153847,2.2153847,2.2153847,2.2153847,2.2153847,2.304,2.304,2.304,2.304,2.2153847,2.2153847,2.2153847,2.2153847,2.2153847,2.2153847,2.2153847,2.2153847,2.2153847,2.2153847,2.2153847,2.2153847,2.2153847,2.2153847,2.2153847,2.2153847,2.2153847,2.2153847,2.2153847,2.2153847,2.2153847,2.1333334,2.2153847,2.2153847,2.2153847,2.2153847,2.1333334,2.1333334,2.1333334,2.1333334,2.1333334,2.2153847,2.2153847,2.2153847,2.2153847,2.2153847,2.2153847,2.2153847,2.2153847,2.2153847,2.1333334,2.1333334,2.2153847,2.2153847,2.1333334,2.2153847,2.2153847,0.0,2.2153847,0.0,0.0,0.0,0.0,0.0,0.0,0.0,0.0,0.0,0.0,0.0,0.0,0.0,0.0,0.0,0.0,0.0,0.0,0.0,0.0,0.0,0.0,0.0,0.0,0.0,0.0,0.0,0.0,0.0,0.0,0.0,0.0,0.0,0.0,0.96,0.0,0.94426227,0.94426227,0.0,0.0,0.0,0.9142857,0.9142857,0.0,0.9,0.9,0.9,0.9,0.9,0.9,0.0,0.8861538,0.8861538,0.8861538,0.8861538,0.0,0.8727273,0.8727273,0.9,0.8727273,0.8727273,0.8727273,0.8727273,0.8727273,0.8727273,0.8727273,0.8727273,0.8597015,0.8597015,0.8597015,0.8597015,0.8597015,0.8597015,0.8597015,0.8597015,0.8597015,0.8597015,0.8597015,0.8597015,0.8597015,0.8597015,0.8597015,0.8597015,0.8597015,0.8597015,0.84705883,0.84705883,0.84705883,0.84705883,0.84705883,0.8597015,0.8597015,0.84705883,0.84705883,0.84705883,0.8597015,0.8597015,0.8597015,0.8597015,0.8597015,0.8597015,0.8597015,0.84705883,0.84705883,0.84705883,0.8727273,0.8597015,0.8597015,0.8597015,0.8597015,0.84705883,0.84705883,0.84705883,0.84705883,0.84705883,0.8597015,0.8597015,0.8597015,0.84705883,0.84705883,0.84705883,0.84705883,0.84705883,0.84705883,0.84705883,0.84705883,0.84705883,0.84705883,0.84705883,0.84705883,0.84705883,0.84705883,0.84705883,0.84705883,0.8597015,0.8597015,0.8597015,0.84705883,0.84705883,0.84705883,0.8597015,0.8597015,0.8597015,0.8597015,0.8597015,0.8597015,0.8727273,0.8727273,0.8727273,0.8727273,0.8727273,0.8597015,0.8727273,0.8727273,0.8727273,0.8727273,0.8727273,0.8727273,0.8727273,0.8727273,0.8727273,0.8861538,0.8861538,0.8861538,0.8861538,0.8727273,0.8861538,0.8727273,0.8727273,0.8861538,0.8861538,0.9,0.9,0.9,0.9,0.9,0.9,0.9,0.9,0.9,0.9,0.9,0.9,0.8861538,0.0,0.9142857,0.9142857,0.9142857,0.0,4.114286,0.0,0.0,0.0,0.0,0.0,0.0,0.96,0.96,0.96,0.96,1.0105263,1.0105263,1.0105263,1.3090909,1.3090909,1.0285715,1.0285715,1.0285715,1.0285715,1.0285715,1.0285715,1.0285715,1.0285715,0.0,0.0,0.0,0.0,0.0,0.0,1.8580645,1.8580645,1.8580645,0.0,0.0,1.5567567,1.8,1.8,1.8,1.8,1.8,1.8,1.8,1.8,1.8,1.8,1.8,1.8,1.8,1.8,1.8,0.82285714,1.7454545,1.7454545,1.7454545,1.8,1.8,1.8,1.8,1.8,1.8,1.8,1.8,1.8,1.8,1.8,1.8580645,1.8580645,1.8580645,1.8580645,1.8580645,1.8580645,1.8580645,1.8580645,1.92,1.92,1.92,1.92,1.8580645,1.8580645,1.8580645,1.8580645,1.8580645,1.8580645,1.8580645
1.6,1.6,0.0,0.0,0.0,0.0,2.057143,0.0,0.0,0.0,0.0,1.5567567,0.0,0.0,1.5157895,1.5157895,1.6457143,1.6457143,0.0,1.6,1.6,0.0,0.0,0.0,0.0,1.6,0.0,1.6,1.6,1.6,1.6,1.6,0.0,0.0,0.0,0.0,0.0,0.0,0.0,0.0,0.0,0.0,0.0,0.0,1.6457143,1.6457143,0.0,0.0,0.0,0.0,1.6,1.6,1.6,1.6,1.6,1.6,1.6,1.6,1.6,1.6,1.6,1.6,1.6,1.6,1.5567567,1.5567567,1.5567567,1.5567567,1.5567567,1.5567567,1.5567567,1.5567567,1.6,1.5567567,1.5567567,1.5567567,1.5567567,1.5567567,1.5567567,1.5567567,1.6,1.6,1.6,1.6,1.5567567,1.5567567,1.5567567,1.5567567,1.5567567,1.5567567,1.5567567,1.5567567,1.5567567,1.5567567,1.5567567,1.5157895,1.5157895,1.5567567,1.5567567,1.5567567,1.5567567,1.5567567,1.5567567,1.5567567,1.5567567,1.5567567,1.5567567,1.5567567,1.5567567,1.5567567,2.2153847,2.2153847,2.2153847,2.2153847,2.2153847,2.2153847,2.2153847,2.2153847,2.2153847,2.2153847,2.2153847,2.2153847,2.2153847,2.304,2.304,2.304,2.2153847,2.2153847,2.2153847,2.2153847,2.2153847,2.2153847,2.2153847,2.2153847,2.2153847,2.2153847,2.2153847,2.2153847,2.2153847,2.2153847,2.2153847,2.2153847,2.2153847,2.2153847,2.2153847,2.2153847,2.2153847,2.2153847,2.2153847,1.1076924,2.2153847,2.2153847,2.2153847,2.2153847,2.1333334,2.1333334,2.1333334,2.2153847,2.2153847,2.2153847,2.2153847,2.2153847,2.2153847,2.2153847,2.2153847,2.2153847,2.1333334,2.1333334,2.1333334,2.1333334,2.2153847,2.2153847,2.2153847,0.0,0.0,0.0,0.0,0.0,0.0,0.0,0.0,0.0,0.0,0.0,0.0,0.0,0.0,0.0,0.0,0.0,0.0,0.0,0.0,0.0,0.0,0.0,0.0,0.0,0.0,0.0,0.0,0.0,0.0,0.0,0.0,0.0,0.0,0.0,0.0,0.0,0.0,0.94426227,0.0,0.0,0.0,0.0,0.0,0.9142857,0.0,0.9,0.9,0.9,0.9,0.0,0.0,0.8861538,0.8861538,0.8861538,0.8861538,0.8861538,0.0,0.0,0.0,0.8861538,0.8861538,0.0,0.8727273,0.8727273,0.8727273,0.8727273,0.8727273,0.8727273,0.8597015,0.8597015,0.8597015,0.8727273,0.8597015,0.8597015,0.8597015,0.8597015,0.8597015,0.8597015,0.84705883,0.8597015,1.1755102,1.1755102,0.8597015,0.8597015,0.8597015,0.8597015,0.84705883,0.84705883,0.84705883,0.8597015,0.84705883,0.8597015,0.84705883,0.8597015,0.8597015,0.8597015,0.8597015,0.8597015,0.8597015,0.8597015,0.8597015,0.8597015,0.8597015,0.8597015,0.84705883,0.84705883,0.8727273,0.84705883,0.84705883,0.84705883,0.84705883,0.84705883,0.84705883,0.84705883,0.84705883,0.8597015,0.8597015,0.8597015,0.84705883,0.84705883,0.84705883,0.84705883,0.84705883,0.84705883,0.84705883,0.84705883,0.84705883,0.84705883,0.84705883,0.84705883,0.84705883,0.84705883,0.84705883,0.84705883,0.84705883,0.8597015,0.84705883,0.84705883,0.84705883,0.84705883,0.8597015,0.8597015,0.8597015,0.8597015,0.8597015,0.8597015,0.8597015,0.8727273,0.8727273,0.8727273,0.8727273,0.8597015,0.8597015,0.8597015,0.8727273,0.8727273,0.8727273,0.8727273,0.8727273,0.8727273,0.8727273,0.8861538,0.8861538,0.8861538,0.8861538,0.8861538,0.8727273,0.8727273,0.8861538,0.8727273,0.9,0.8861538,0.8861538,0.9,0.9,0.9,0.9,0.9,0.9,0.9,0.9,0.9,0.9,0.9,0.9,0.9142857,0.9142857,0.9142857,0.9142857,0.0,0.0,0.0,0.92903227,0.92903227,0.0,0.0,0.94426227,0.0,0.96,0.9762712,0.0,7.2,0.0,1.0105263,1.0105263,1.0105263,1.0285715,1.0285715,1.0285715,1.0285715,1.0285715,1.0285715,1.0285715,1.0285715,1.0105263,1.0105263,0.0,0.0,0.0,0.0,1.8580645,1.8580645,0.0,0.0,0.0,0.0,0.0,1.8,1.8,1.8,1.8,1.8,1.8,1.8,1.8,1.8,1.8,1.8,1.8,1.8,1.8,1.8,1.8,1.8,1.7454545,1.8,1.8,1.8,1.8,1.8,1.8,1.8,1.8,1.8,1.8,1.8580645,1.8580645,1.8580645,1.8580645,1.8580645,1.8580645,1.8580645,1.8580645,1.8580645,1.92,1.92,1.8580645,1.8580645,1.8580645,1.8580645,1.8580645,1.8580645,1.8580645,1.8580645,1.8580645
1.6,1.6,1.6,0.0,1.5567567,1.5567567,0.0,1.9862069,0.0,1.6,0.0,1.5567567,1.5567567,1.5567567,0.0,0.0,1.6457143,0.0,1.6,1.6,1.6,0.0,0.0,0.0,0.0,1.6,0.0,1.6,1.6,1.6,1.6,1.6457143,1.6457143,1.6457143,0.0,0.0,0.0,0.0,0.0,0.0,0.0,1.5157895,1.5157895,0.0,1.6457143,1.5567567,1.6457143,1.6457143,0.0,1.6,1.6941177,1.6,1.6,1.6,1.6,1.6,1.6,1.6,1.6,1.5567567,1.6,1.6,1.6,1.6,1.5567567,1.6,1.6,1.6,1.5567567,1.5567567,1.6,1.5567567,1.6,1.5567567,1.5567567,1.5567567,1.6,1.6,1.6,1.6,1.6,1.6,1.6,1.5567567,1.5567567,1.5567567,1.5567567,1.6,1.6,1.5567567,1.5567567,1.5567567,1.5567567,1.5567567,1.5567567,1.5157895,1.5157895,1.5567567,1.5567567,1.5567567,1.5567567,1.5567567,1.5567567,1.5567567,1.5567567,1.5567567,1.5567567,1.5567567,1.6,2.2153847,2.2153847,2.2153847,2.2153847,2.2153847,2.2153847,2.2153847,2.2153847,2.2153847,2.2153847,2.2153847,2.2153847,2.2153847,2.2153847,2.304,2.304,2.2153847,1.0867925,2.2153847,2.2153847,2.2153847,2.2153847,2.2153847,2.2153847,2.2153847,2.2153847,2.2153847,2.2153847,2.2153847,2.2153847,2.2153847,2.2153847,2.2153847,2.2153847,2.2153847,2.2153847,2.2153847,2.2153847,2.2153847,2.2153847,2.2153847,2.2153847,2.2153847,2.2153847,2.2153847,2.2153847,2.2153847,2.2153847,2.2153847,2.2153847,2.2153847,2.2153847,2.2153847,2.2153847,2.1333334,2.2153847,2.2153847,2.1333334,2.1333334,1.0867925,0.0,0.0,0.0,0.0,0.0,0.0,0.0,0.0,0.0,0.0,0.0,0.0,0.0,0.0,0.0,0.0,0.0,0.0,0.0,0.0,0.0,0.0,0.0,0.0,0.0,0.0,0.0,0.0,0.0,0.0,0.0,0.0,0.0,0.0,0.0,0.0,0.0,0.94426227,0.94426227,0.0,0.0,0.94426227,0.0,0.94426227,0.0,0.0,0.0,0.0,0.9142857,0.0,0.9142857,0.0,0.0,0.0,0.92903227,0.9,0.0,0.0,0.8861538,0.8861538,0.8861538,0.0,0.8727273,0.8861538,0.8861538,0.8861538,0.0,0.8727273,0.8727273,0.8727273,0.8727273,0.8727273,0.8727273,0.8727273,0.8727273,0.8727273,0.8597015,0.8597015,0.8597015,0.8597015,0.8597015,0.8597015,0.8597015,0.8597015,0.8597015,0.8597015,0.8597015,0.8597015,0.8597015,0.8597015,0.8597015,0.84705883,0.84705883,0.84705883,0.8597015,0.84705883,0.8597015,0.84705883,0.8597015,0.8597015,0.8597015,0.8597015,0.8597015,0.8597015,0.8597015,0.8597015,0.8597015,0.8597015,0.84705883,0.84705883,0.84705883,0.8727273,0.84705883,0.84705883,0.84705883,0.84705883,0.84705883,0.8347826,0.84705883,0.84705883,0.84705883,0.84705883,0.84705883,0.84705883,0.84705883,0.84705883,0.84705883,0.84705883,0.84705883,0.84705883,0.84705883,0.84705883,0.84705883,0.84705883,0.84705883,0.84705883,0.84705883,0.84705883,0.84705883,0.84705883,0.84705883,0.84705883,0.84705883,0.84705883,0.84705883,0.8597015,0.8597015,0.8597015,0.8597015,0.8597015,0.8597015,0.8597015,0.8597015,0.8727273,0.8727273,0.8727273,0.8727273,0.8597015,0.8597015,0.8727273,0.8727273,0.8727273,0.8727273,0.8727273,0.8727273,0.8861538,0.9,0.8727273,0.8861538,0.8727273,0.8861538,0.8861538,0.8861538,0.8727273,0.8727273,0.8727273,0.8861538,0.8861538,0.9,0.9,0.9,0.9,0.9,0.9,0.9,0.9,0.9,0.9,0.9,0.9,0.9142857,0.9142857,0.9142857,0.9142857,2.5043478,0.0,0.0,0.92903227,0.92903227,0.92903227,0.0,0.96,0.0,0.96,0.96,0.9762712,0.0,0.0,1.0105263,1.0105263,1.0105263,1.0105263,1.0105263,1.0105263,1.0105263,1.0105263,1.0105263,1.0105263,1.0105263,1.0105263,1.0105263,1.0105263,0.0,0.0,9.6,0.0,1.8580645,0.0,0.0,0.0,0.0,1.152,1.8,1.8,1.8,1.2,1.2,1.8,1.8,1.8,1.8,1.8,1.7454545,1.7454545,1.8,1.8,1.8,1.8,1.8,1.8,1.8,1.8,1.8,1.8,1.8,1.8,1.8,1.8,1.8,1.8,1.8,8.228572,1.8580645,1.8580645,1.8580645,1.8580645,1.8580645,1.8580645,1.92,1.92,1.92,1.8580645,4.4307694,1.8580645,1.8580645,1.8580645,1.8580645,1.8580645,1.8580645,1.8580645
0.0,1.6,1.6,1.6,1.6,0.0,0.0,0.0,0.0,0.0,0.0,1.5567567,1.5567567,1.6,0.0,1.5567567,1.6457143,1.6457143,0.0,1.6,1.6,1.6,0.0,0.0,1.6457143,0.0,0.0,0.0,0.0,1.6,1.6,1.6457143,1.6457143,0.0,0.0,0.0,0.0,0.0,0.0,0.0,0.0,1.4769231,1.6457143,0.0,1.44,1.44,1.44,1.4769231,1.6457143,1.6457143,0.0,0.0,1.6,1.6,1.6,1.6,1.6,1.6,1.5567567,1.6,1.5567567,1.6,1.5567567,1.6,1.5567567,1.5567567,1.6,1.5567567,1.5567567,1.6,1.6,1.5567567,1.5567567,1.5567567,1.5567567,1.6,1.6,1.6,1.6,1.6,1.6,1.5567567,1.5567567,1.5567567,1.5567567,1.5567567,1.5567567,1.6,1.6,1.6,1.5567567,1.5567567,1.5567567,1.5567567,1.5567567,1.5567567,1.5157895,1.5567567,1.5567567,1.5567567,1.5567567,1.5567567,1.5567567,1.5567567,1.5567567,1.5567567,1.5567567,1.5567567,1.5567567,2.2153847,2.2153847,2.2153847,2.2153847,2.2153847,2.2153847,2.2153847,2.2153847,2.2153847,2.2153847,2.2153847,2.2153847,2.2153847,2.304,2.304,2.304,2.2153847,2.2153847,2.2153847,2.2153847,2.2153847,2.2153847,2.304,2.2153847,2.2153847,2.2153847,2.2153847,2.2153847,2.2153847,2.2153847,2.2153847,2.2153847,2.2153847,2.2153847,2.2153847,2.2153847,2.2153847,2.2153847,2.2153847,2.2153847,2.2153847,2.2153847,2.2153847,2.2153847,2.2153847,2.2153847,2.2153847,2.2153847,2.2153847,2.2153847,2.2153847,2.1333334,2.1333334,2.1333334,0.0,0.0,0.0,2.1333334,0.0,0.0,0.0,0.0,0.0,0.0,0.0,0.0,0.0,0.0,0.0,0.0,0.0,0.0,0.0,0.0,0.0,0.0,0.0,0.0,0.0,0.0,0.0,0.0,0.0,0.0,0.0,0.0,0.0,0.0,0.0,0.0,0.0,0.0,0.0,0.0,0.0,0.0,0.0,0.0,0.0,0.0,0.0,0.0,0.0,0.0,0.0,0.0,0.0,0.0,0.9,0.0,0.9142857,0.9142857,0.9142857,0.0,0.0,0.92903227,0.0,0.9142857,0.0,0.0,0.0,0.0,0.0,0.0,0.0,0.0,0.84705883,0.84705883,0.8727273,0.8727273,0.8727273,0.8727273,0.8727273,0.8727273,0.8727273,0.8727273,0.8597015,0.8597015,0.8597015,0.8597015,0.8597015,0.84705883,0.84705883,0.8597015,0.8597015,1.1755102,0.8597015,0.8597015,0.8597015,0.8597015,0.8597015,0.84705883,0.84705883,0.84705883,0.84705883,0.84705883,0.84705883,0.84705883,0.84705883,0.84705883,0.84705883,0.84705883,0.84705883,0.8597015,0.8597015,0.8597015,0.84705883,0.84705883,0.84705883,0.84705883,0.84705883,0.84705883,0.8597015,0.84705883,0.84705883,0.84705883,0.84705883,0.84705883,0.84705883,0.84705883,0.84705883,0.84705883,0.84705883,0.84705883,0.84705883,0.84705883,0.84705883,0.84705883,0.84705883,0.84705883,0.84705883,0.84705883,0.84705883,0.84705883,0.84705883,0.84705883,0.84705883,0.84705883,0.84705883,0.84705883,0.84705883,0.84705883,0.84705883,0.84705883,0.84705883,0.8597015,0.8597015,0.8597015,0.8597015,0.8597015,0.8597015,0.8597015,0.8597015,0.8597015,0.8597015,0.8727273,0.8727273,0.8597015,0.8597015,0.8727273,0.8727273,0.8727273,0.8727273,0.8727273,0.8727273,0.8727273,0.8727273,0.8727273,0.8727273,0.8861538,0.9,0.8727273,0.8861538,0.8861538,0.8727273,0.9,0.8861538,0.8861538,0.9,0.9,0.9,0.9,0.9,0.9,0.9,0.9,0.9,0.9,0.9,0.9142857,0.9142857,0.9142857,0.9142857,0.0,0.0,0.0,0.0,0.92903227,0.92903227,0.92903227,0.92903227,0.96,0.0,0.9762712,0.9762712,0.9762712,0.9762712,0.0,1.0105263,1.0105263,1.0105263,1.0105263,1.0105263,1.0105263,1.0105263,1.0105263,1.0105263,1.0105263,1.0105263,1.0105263,1.0105263,1.0105263,0.0,0.0,0.0,0.0,0.0,0.0,0.0,0.0,1.44,1.44,1.8,1.8,1.8,1.8,1.8,1.8,1.8,1.8,1.8,1.8,1.7454545,1.7454545,1.7454545,1.7454545,1.7454545,1.7454545,1.8,1.8,1.8,1.8,1.8,1.8,1.8,1.8,1.8,1.8,1.8,1.8,1.8580645,1.8580645,1.8580645,1.8580645,1.8580645,1.8580645,1.8580645,1.8580645,1.92,1.92,2.7428572,1.8580645,1.8580645,1.8580645,1.8580645,1.8580645,1.8580645,1.8580645,1.8580645,1.8580645
