2.304,2.304,2.304,2.304,2.304,2.304,2.304,2.304,2.304,2.304,2.304,2.304,2.304,2.304,2.304,2.304,2.304,2.304,2.304,2.304,2.304,2.304,2.304,2.304,2.304,2.304,2.304,2.304,2.304,2.304,2.304,2.2153847,2.2153847,2.2153847,2.2153847,2.2153847,2.2153847,2.2153847,2.2153847,2.2153847,2.2153847,2.2153847,2.2153847,2.2153847,2.2153847,2.2153847,2.2153847,2.2153847,2.304,2.304,2.2153847,2.2153847,2.2153847,2.2153847,2.2153847,2.2153847,2.2153847,2.2153847,2.304,2.304,2.304,2.304,2.4,2.4,2.304,2.304,2.304,2.304,2.304,2.304,2.4,2.4,2.4,2.4,2.4,2.304,2.304,2.304,2.304,2.4,2.4,2.4,2.4,2.304,2.304,2.304,2.304,2.304,2.304,2.4,2.304,2.304,2.304,2.304,2.304,2.304,2.2153847,2.2153847,2.2153847,2.2153847,2.2153847,2.2153847,2.2153847,2.2153847,2.2153847,2.2153847,2.2153847,2.2153847,2.2153847,2.2153847,2.1333334,2.1333334,2.2153847,2.2153847,2.2153847,2.2153847,1.404878,2.2153847,2.2153847,2.2153847,2.2153847,2.2153847,2.2153847,2.2153847,2.2153847,2.2153847,2.2153847,2.304,2.2153847,2.304,2.2153847,2.304,2.4,2.304,2.304,2.304,2.304,2.304,2.304,2.304,2.304,2.304,2.304,2.304,2.304,2.304,2.304,2.304,2.304,2.304,2.304,2.4,2.4,2.304,2.304,2.304,2.304,2.304,2.304,2.304,2.304,2.304,2.304,2.304,2.304,2.7428572,2.7428572,2.7428572,2.4,2.4,2.4,2.4,2.4,2.4,2.304,2.304,2.304,2.304,2.304,2.304,2.304,2.304,2.304,2.304,2.304,2.2153847,2.2153847,2.2153847,2.2153847,2.2153847,2.2153847,2.2153847,2.2153847,2.2153847,2.2153847,2.2153847,2.2153847,2.2153847,2.2153847,2.2153847,2.2153847,2.2153847,2.2153847,2.2153847,2.2153847,2.2153847,2.2153847,2.2153847,2.2153847,2.2153847,2.2153847,1.5157895,1.5157895,1.5157895,1.5157895,1.5157895,1.5157895,1.5157895,1.4769231,1.44,1.44,1.44,1.44,1.44,1.44,1.44,1.404878,1.404878,1.404878,1.404878,1.3395349,1.3395349,1.3395349,1.3395349,1.3395349,1.3395349,1.3395349,1.3395349,1.3395349,1.3395349,1.3090909,1.3090909,1.3090909,1.3090909,1.3090909,1.3090909,1.3090909,1.3090909,1.3090909,1.3090909,1.3090909,1.3090909,1.3090909,1.3090909,1.3090909,1.3090909,1.3090909,1.3090909,1.3090909,1.3090909,1.3090909,1.3090909,1.3090909,1.3090909,1.3090909,1.3090909,1.3090909,1.3090909,1.3090909,1.3090909,1.3090909,1.3090909,1.3090909,1.3395349,1.3395349,1.3395349,1.3395349,1.3395349,1.3395349,1.3395349,1.3395349,1.3395349,1.3395349,1.3395349,1.3395349,1.3395349,1.3395349,1.3395349,1.3395349,1.3714286,1.3714286,1.3714286,1.3714286,1.3714286,1.3714286,1.3714286,1.3714286,1.3714286,1.3714286,1.3714286,1.3714286,1.3395349,1.3714286,1.3714286,1.404878,1.404878,1.404878,1.404878,1.404878,1.404878,1.404878,1.404878,1.404878,1.404878,1.404878,1.404878,1.404878,1.404878,0.0,1.44,1.404878,0.0,0.0,0.8727273,0.0,1.5157895,1.5157895,1.5157895,0.0,0.0,1.5567567,1.5567567,1.5567567,1.5567567,0.0,0.0,0.0,0.0,0.0,1.6941177,1.6,1.6,1.5567567,0.0,0.0,1.6457143,0.0,1.6941177,1.6941177,1.6457143,1.6457143,1.6457143,1.6457143,0.0,1.6941177,1.6941177,1.6941177,1.8580645,1.6457143,1.6457143,1.6941177,1.6941177,1.6941177,1.6941177,1.6941177,1.6941177,1.6941177,1.6941177,1.6941177,1.6941177,1.6941177,1.6941177,1.6941177,1.6941177,1.6941177,2.057143,1.7454545,1.7454545,1.7454545,1.7454545,2.057143,2.057143,2.057143,2.057143,2.057143,2.057143,2.057143,2.057143,2.057143,2.057143,2.057143,2.057143,2.057143,2.057143,2.057143,2.057143,2.057143,2.057143,2.057143,2.057143,2.057143,2.057143,2.057143,2.057143,2.057143,2.057143,2.057143,2.057143,2.057143,2.057143,2.057143,2.057143,2.057143,2.057143,2.057143,2.057143,4.4307694,2.057143,2.057143,2.057143,2.057143,2.057143,2.057143,2.057143,2.057143,2.057143,2.057143,2.057143,2.057143,2.057143,2.057143,1.6941177,1.6941177,1.6941177,1.6941177,1.6941177,1.6941177,1.6941177,1.6941177,1.6941177,1.6941177,1.6941177,28.8,0.0,0.0
2.304,2.304,2.304,2.304,2.304,2.304,2.304,2.304,2.304,2.304,2.304,2.304,2.304,2.304,2.304,2.304,2.304,2.304,2.304,2.304,2.304,2.304,2.304,2.304,2.304,2.304,2.304,2.304,2.304,2.304,2.2153847,2.2153847,2.2153847,2.2153847,2.2153847,2.2153847,2.2153847,2.2153847,2.2153847,2.2153847,2.2153847,2.2153847,2.2153847,2.2153847,2.2153847,2.2153847,2.2153847,2.2153847,2.2153847,2.2153847,2.2153847,2.2153847,2.2153847,2.2153847,2.2153847,2.2153847,2.2153847,2.304,2.304,2.304,2.304,2.304,2.4,2.4,2.304,2.304,2.304,2.304,2.304,2.4,2.4,2.4,2.4,2.4,2.304,2.304,2.304,2.304,2.304,2.4,2.304,2.304,2.304,2.304,2.304,2.304,2.304,2.4,2.4,2.4,2.4,2.304,2.304,2.304,2.304,2.304,2.304,2.2153847,2.2153847,2.2153847,2.2153847,2.2153847,2.2153847,2.2153847,2.2153847,2.2153847,2.2153847,2.2153847,2.2153847,2.2153847,2.1333334,2.1333334,2.2153847,2.2153847,2.2153847,2.2153847,2.2153847,2.2153847,2.2153847,2.2153847,2.2153847,2.2153847,2.2153847,2.2153847,2.2153847,2.2153847,2.2153847,2.2153847,2.2153847,2.304,2.304,2.304,2.304,2.304,2.4,2.304,2.304,2.304,2.304,9.6,2.304,2.304,2.304,2.304,2.304,2.304,2.304,2.304,2.304,2.304,2.304,2.4,2.4,2.4,2.304,2.304,2.304,2.304,2.304,2.304,2.304,2.304,2.4,2.4,2.4,2.4,2.4,2.4,2.4,2.4,2.4,2.4,2.4,2.304,2.304,2.304,2.304,2.304,2.304,2.304,2.304,2.304,2.4,2.2153847,2.2153847,2.2153847,2.2153847,2.2153847,2.2153847,2.2153847,2.2153847,2.2153847,2.2153847,2.2153847,2.2153847,2.2153847,2.2153847,2.2153847,2.2153847,2.2153847,2.2153847,2.2153847,2.2153847,1.6,2.2153847,2.2153847,1.6,1.5567567,2.2153847,2.2153847,2.2153847,1.5157895,1.5157895,1.5157895,1.5157895,1.5157895,1.5157895,1.5157895,1.4769231,1.44,1.44,1.44,1.44,1.44,1.44,1.44,1.404878,1.404878,1.404878,1.404878,1.3395349,1.3395349,1.3395349,1.3395349,1.3395349,1.3395349,1.3395349,1.3395349,1.3395349,1.3090909,1.3090909,1.3090909,1.3090909,1.3090909,1.3090909,1.3090909,1.3090909,1.3090909,1.3090909,1.3090909,1.3090909,1.3090909,1.3090909,1.3090909,1.3090909,1.3090909,1.3090909,1.3090909,1.3090909,1.3090909,1.3090909,1.3090909,1.3090909,1.3395349,1.3395349,1.3090909,1.3090909,1.3090909,1.3090909,1.3090909,1.3090909,1.3395349,1.3395349,1.3395349,1.3395349,1.3395349,1.3395349,1.3395349,1.3395349,1.3395349,1.3395349,1.3714286,1.3395349,1.3395349,1.3395349,1.3395349,1.3395349,1.3395349,1.3395349,1.3395349,1.3714286,1.3714286,1.3714286,1.3714286,1.3714286,1.3714286,1.3714286,1.3714286,1.3714286,1.3714286,1.3714286,1.3395349,1.3714286,1.3714286,1.404878,1.404878,1.404878,1.404878,1.404878,1.404878,1.404878,1.404878,1.404878,1.404878,1.404878,1.404878,1.404878,1.404878,0.0,0.0,0.0,0.0,0.0,0.8727273,0.8727273,1.5157895,1.5157895,0.0,1.5567567,1.5567567,1.5567567,1.5567567,1.5567567,1.5567567,0.0,0.0,0.0,0.0,0.0,0.0,0.0,0.0,1.8580645,0.0,1.6457143,0.0,0.0,1.6941177,1.6941177,1.6457143,1.6457143,1.6457143,0.0,0.0,1.6941177,1.6941177,1.6941177,1.6941177,1.6457143,1.6457143,1.6457143,1.6941177,1.6941177,1.6941177,1.6941177,1.6941177,1.6941177,1.6941177,1.6941177,1.6941177,1.6941177,1.6941177,1.6457143,1.7454545,1.6941177,1.6941177,1.6941177,1.6941177,2.057143,1.7454545,1.7454545,2.057143,2.057143,2.057143,2.057143,2.057143,2.057143,2.057143,2.057143,0.9142857,2.057143,2.057143,2.057143,2.057143,2.057143,2.057143,2.057143,2.057143,2.057143,2.057143,2.057143,2.057143,2.057143,2.057143,2.1333334,2.1333334,2.1333334,2.057143,2.057143,2.057143,2.057143,2.057143,2.057143,2.057143,2.057143,2.057143,2.057143,2.057143,2.057143,2.057143,2.057143,2.057143,2.057143,2.057143,2.057143,2.057143,2.057143,2.057143,2.057143,2.057143,1.6941177,1.6941177,1.6941177,1.6941177,1.6941177,1.6941177,1.6941177,1.6941177,1.6941177,1.6941177,1.6941177,1.6941177,0.0,0.0,0.0
2.304,2.304,2.304,2.304,2.304,2.304,2.304,2.304,2.304,2.304,2.304,2.304,2.304,2.304,2.304,2.304,2.304,2.304,2.304,2.304,2.304,2.304,2.304,2.304,2.304,2.304,2.304,2.304,2.304,2.2153847,2.2153847,2.2153847,2.2153847,2.2153847,2.2153847,2.2153847,2.2153847,2.2153847,2.2153847,2.2153847,2.2153847,2.2153847,2.2153847,2.2153847,2.2153847,2.1333334,2.2153847,2.2153847,2.2153847,2.2153847,2.2153847,2.2153847,2.2153847,2.2153847,2.304,2.304,2.304,2.304,2.304,2.304,2.304,2.304,2.4,2.304,2.304,2.304,2.304,2.304,2.304,2.4,2.4,2.4,2.304,2.304,2.4,2.4,2.4,2.4,2.4,2.4,2.4,2.4,2.304,2.304,2.304,2.4,2.4,2.4,2.4,2.4,2.304,2.304,2.304,2.304,2.304,2.304,2.304,2.304,2.304,2.304,2.304,2.2153847,2.2153847,2.1333334,2.2153847,2.2153847,2.2153847,2.2153847,2.2153847,2.2153847,2.2153847,2.1333334,2.2153847,2.2153847,2.2153847,2.2153847,2.2153847,2.2153847,2.2153847,2.2153847,2.2153847,2.2153847,2.2153847,2.2153847,2.2153847,2.2153847,2.304,2.2153847,2.2153847,2.304,2.304,2.304,2.304,2.304,2.304,2.304,2.4,2.304,2.304,2.304,2.304,2.304,2.304,2.304,2.304,2.304,2.304,2.304,2.304,2.304,2.304,2.4,2.4,2.4,2.304,2.304,2.304,2.304,2.304,2.304,2.304,2.304,2.304,2.4,2.4,2.4,2.4,2.4,2.4,2.4,2.4,2.4,2.4,2.4,2.4,2.304,2.4,2.304,2.304,2.304,2.304,2.4,2.4,2.304,2.2153847,2.2153847,2.2153847,2.2153847,2.2153847,2.2153847,2.2153847,2.2153847,2.2153847,2.2153847,2.2153847,2.2153847,2.2153847,2.2153847,2.2153847,2.2153847,2.2153847,2.2153847,2.2153847,2.2153847,2.2153847,1.6,1.6,1.6,1.5567567,2.2153847,1.5157895,1.5157895,1.5157895,1.5157895,1.5157895,1.5157895,1.5157895,1.5157895,1.5157895,1.44,1.44,1.44,1.44,1.44,1.44,1.44,1.404878,1.404878,1.404878,1.404878,1.404878,1.3395349,1.3395349,1.3395349,1.3395349,1.3395349,1.3395349,1.3395349,1.3395349,1.3090909,1.3090909,1.3090909,1.3090909,1.3090909,1.3090909,1.3090909,1.3090909,1.3090909,1.3090909,1.3090909,1.3090909,1.3090909,1.3395349,1.3395349,1.3395349,1.3090909,1.3090909,1.3090909,1.3090909,1.3090909,1.3090909,1.3090909,1.3395349,1.3395349,1.3395349,1.3090909,1.3090909,1.3090909,1.3090909,1.3090909,1.3395349,1.3395349,1.3395349,1.3395349,1.3395349,1.3395349,1.3395349,1.3395349,1.3395349,1.3395349,1.3395349,1.3395349,1.3395349,1.3395349,1.3395349,1.3395349,1.3395349,1.3395349,1.3714286,1.404878,1.404878,1.3714286,1.3714286,1.3714286,1.3714286,1.3714286,1.3714286,1.3714286,1.3714286,1.3714286,1.3714286,1.404878,1.404878,1.404878,1.404878,1.404878,1.404878,1.404878,1.404878,1.404878,1.404878,1.404878,1.44,1.404878,1.404878,1.404878,1.404878,1.404878,1.44,0.0,0.0,0.0,0.0,0.0,0.0,1.5567567,1.5567567,0.0,1.3395349,1.3395349,0.0,1.5567567,0.0,0.0,0.0,0.0,0.0,0.0,0.0,0.0,0.0,1.8,0.0,0.0,1.6,0.0,0.0,1.6941177,1.6941177,1.6457143,0.0,0.0,0.0,0.0,1.6941177,1.6941177,1.6941177,1.6941177,1.6457143,1.6457143,1.6457143,1.6457143,1.6941177,1.6941177,1.6941177,1.6941177,1.6941177,1.6941177,1.6941177,1.6941177,1.6941177,1.6941177,1.6941177,1.6457143,1.6941177,1.6941177,1.6941177,1.6941177,1.6941177,1.6941177,2.057143,2.057143,1.6941177,1.6941177,1.6941177,2.057143,2.057143,2.057143,2.057143,2.057143,2.057143,2.057143,2.057143,2.057143,2.057143,2.057143,2.057143,2.057143,2.057143,2.057143,2.057143,2.057143,2.057143,2.057143,2.057143,2.057143,2.057143,2.057143,2.057143,2.057143,2.057143,2.057143,2.057143,2.057143,2.057143,2.057143,2.057143,2.057143,2.057143,2.057143,2.057143,2.057143,2.057143,2.057143,2.057143,2.057143,2.057143,2.057143,2.057143,1.6941177,1.6941177,1.6941177,1.6941177,1.6941177,1.6941177,1.6941177,1.6941177,1.6941177,1.6941177,1.6941177,1.6941177,1.6941177,0.0,0.0,0.0
2.304,2.304,2.304,2.304,2.304,2.304,2.304,2.304,2.304,2.304,2.304,2.304,2.304,2.304,2.2153847,2.2153847,2.304,2.304,2.304,2.304,2.304,2.304,2.304,2.304,2.304,2.304,2.304,2.304,2.2153847,2.2153847,2.2153847,2.2153847,2.2153847,2.2153847,2.2153847,2.2153847,2.2153847,2.2153847,2.2153847,2.2153847,2.2153847,2.2153847,2.2153847,2.2153847,2.2153847,2.1333334,2.2153847,2.2153847,2.2153847,2.304,2.2153847,2.2153847,2.2153847,2.304,2.304,0.77837837,2.304,2.304,2.304,2.304,2.304,2.304,2.304,2.304,2.304,2.2153847,2.304,2.304,2.304,2.304,2.304,2.4,2.304,2.304,2.1333334,2.304,2.304,2.304,2.4,2.4,2.4,2.304,2.304,2.304,2.304,2.304,2.4,2.304,2.304,2.304,2.304,2.304,2.4,2.304,2.304,2.304,2.304,2.304,2.304,2.2153847,2.2153847,2.2153847,2.2153847,2.2153847,2.2153847,2.2153847,2.2153847,2.2153847,2.2153847,2.2153847,2.2153847,2.2153847,2.2153847,2.2153847,2.2153847,2.2153847,2.2153847,2.2153847,2.4,2.2153847,2.2153847,2.2153847,2.2153847,2.2153847,2.2153847,2.2153847,2.2153847,2.2153847,2.304,2.304,2.304,2.304,2.304,2.304,2.304,2.304,2.4,2.4,2.4,2.304,2.304,2.304,2.304,2.304,2.304,2.304,2.304,2.304,2.304,2.304,2.4,2.4,2.4,2.4,2.304,2.304,2.2153847,2.2153847,2.304,2.304,2.304,2.304,2.4,2.4,2.4,2.4,2.4,2.4,2.4,2.4,2.4,2.4,2.4,2.4,2.4,2.4,2.304,2.304,2.304,2.304,2.304,2.304,2.304,2.304,2.2153847,2.304,2.2153847,2.2153847,2.2153847,2.2153847,2.2153847,2.2153847,2.2153847,2.2153847,2.2153847,2.2153847,2.2153847,2.2153847,2.2153847,2.2153847,2.2153847,2.2153847,2.2153847,2.2153847,2.2153847,2.2153847,1.5567567,1.5567567,1.5567567,1.5567567,1.5157895,1.5157895,1.5157895,1.5157895,1.5157895,1.5157895,1.5157895,1.5157895,1.5157895,1.44,1.44,1.44,1.44,1.44,1.44,1.44,1.404878,1.404878,1.404878,1.404878,1.3395349,1.3395349,1.3395349,1.3395349,1.3395349,1.3395349,1.3395349,1.3395349,1.3395349,1.3395349,1.3090909,1.3090909,1.3090909,1.3090909,1.3090909,1.3090909,1.3090909,1.3090909,1.3090909,1.3395349,1.3090909,1.3395349,1.3395349,1.3395349,1.3395349,1.3090909,1.3090909,1.3090909,1.3090909,1.3090909,1.3090909,1.3090909,1.3090909,1.3090909,1.3090909,1.3090909,1.3090909,1.3090909,1.3090909,1.3395349,1.3395349,1.3395349,1.3395349,1.3395349,1.3395349,1.3395349,1.3395349,1.3395349,1.3395349,1.3395349,1.3395349,1.3395349,1.3395349,1.3395349,1.3395349,1.3395349,1.3395349,1.3714286,1.3714286,1.3714286,1.3714286,1.3714286,1.3714286,1.3714286,1.3714286,1.3714286,1.3714286,1.3714286,1.3714286,1.404878,1.404878,1.404878,1.404878,1.404878,1.404878,1.404878,1.404878,1.404878,1.404878,1.404878,1.404878,1.44,1.44,1.44,1.44,1.44,1.44,1.44,1.44,1.44,0.0,0.0,0.0,0.0,0.0,1.5567567,1.5567567,0.0,1.3395349,0.0,0.0,0.0,0.0,0.0,1.8580645,0.0,0.0,0.0,1.4769231,1.6941177,0.0,0.0,0.0,0.0,1.6457143,1.6457143,1.6457143,0.0,1.6941177,0.0,0.0,1.6941177,1.6941177,1.6941177,0.0,1.6941177,1.6941177,1.6941177,1.6457143,1.6457143,1.6457143,1.6457143,1.6941177,1.6941177,1.6941177,1.6457143,1.6457143,1.6941177,1.6941177,1.6941177,1.6457143,1.6457143,1.6457143,1.6457143,1.6941177,1.6941177,1.6941177,1.6941177,1.6457143,2.057143,2.057143,2.057143,1.6941177,1.6941177,1.6941177,1.6941177,2.057143,1.6457143,1.6457143,2.057143,2.057143,2.057143,1.9862069,1.6457143,1.6457143,2.057143,2.057143,2.057143,2.057143,2.057143,2.057143,2.057143,2.057143,2.057143,2.057143,2.057143,2.057143,2.057143,2.057143,2.057143,2.057143,2.057143,2.057143,2.057143,2.057143,2.057143,2.057143,2.057143,2.057143,2.057143,2.057143,2.057143,2.057143,2.057143,2.057143,2.057143,1.6457143,2.057143,1.6941177,1.6941177,1.6941177,1.6941177,1.6941177,1.6941177,1.6941177,1.6941177,1.6941177,1.6941177,1.6941177,1.6941177,1.6941177,1.6941177,0.0,0.0,0.0
2.304,2.304,2.2153847,2.2153847,2.304,2.304,2.304,2.304,2.304,2.304,2.304,2.304,2.304,2.304,2.2153847,2.2153847,2.2153847,2.304,2.304,2.304,2.304,2.304,2.304,2.304,2.304,2.304,2.304,2.304,2.304,2.2153847,2.304,2.304,2.304,2.2153847,2.304,2.2153847,2.2153847,2.2153847,2.2153847,2.2153847,2.2153847,2.2153847,2.2153847,2.2153847,2.1333334,2.1333334,2.2153847,2.2153847,2.304,2.304,2.304,2.304,2.304,2.304,2.304,0.77837837,0.77837837,2.304,2.304,2.304,2.304,2.304,2.304,2.304,2.304,2.2153847,2.304,2.304,2.304,2.304,2.304,2.4,2.304,2.304,2.304,2.304,2.4,2.4,2.4,2.304,2.4,2.304,2.304,2.304,2.304,2.304,2.304,2.304,2.304,2.304,2.304,2.304,2.304,2.304,2.304,2.304,2.304,2.304,2.304,2.2153847,2.304,2.2153847,2.2153847,2.2153847,2.2153847,2.2153847,2.2153847,2.2153847,2.2153847,2.2153847,2.2153847,2.2153847,2.2153847,2.2153847,2.2153847,2.2153847,2.2153847,2.2153847,2.2153847,2.2153847,2.2153847,2.2153847,2.1333334,2.2153847,2.2153847,2.2153847,2.2153847,2.2153847,2.2153847,2.304,2.304,2.304,2.304,2.304,2.304,2.4,2.4,2.4,2.304,2.304,2.304,2.304,2.304,2.304,2.304,2.304,2.304,2.304,2.304,2.304,2.4,2.4,2.4,2.304,2.304,2.304,2.2153847,2.2153847,2.4,2.4,2.4,2.4,2.4,2.4,2.4,2.4,2.4,2.4,2.4,2.4,2.4,2.4,2.4,2.4,2.4,2.304,2.304,2.304,2.304,2.304,2.304,2.304,2.304,2.304,2.2153847,2.304,2.304,2.304,2.304,2.2153847,2.2153847,2.2153847,2.2153847,2.2153847,2.2153847,2.2153847,2.2153847,2.2153847,1.5157895,2.2153847,2.2153847,2.2153847,2.2153847,2.2153847,2.2153847,1.5567567,1.5567567,1.5567567,1.5567567,1.5157895,1.5157895,1.5157895,1.5157895,1.5567567,1.5157895,1.5157895,1.5157895,1.5157895,1.5157895,1.44,1.4769231,1.44,1.44,1.44,1.44,1.44,1.44,1.404878,1.404878,1.3714286,1.3714286,1.3714286,1.3714286,1.3395349,1.3395349,1.3395349,1.3395349,1.3395349,1.3395349,1.3395349,1.3090909,1.3090909,1.3090909,1.3090909,1.3090909,1.3090909,1.3395349,1.3090909,1.3395349,1.3395349,1.3395349,1.3395349,1.3395349,1.3395349,1.3395349,1.3090909,1.3090909,1.3090909,1.3090909,1.3090909,1.3090909,1.3090909,1.3090909,1.3090909,1.3090909,1.3090909,1.3090909,1.3090909,1.3395349,1.3395349,1.3395349,1.3395349,1.3395349,1.3395349,1.3395349,1.3395349,1.3395349,1.3395349,1.3395349,1.3395349,1.3395349,1.3395349,1.3395349,1.3395349,1.3395349,1.3395349,1.3714286,1.3714286,1.3714286,1.3714286,1.3714286,1.3714286,1.3714286,1.3714286,1.3714286,1.3714286,1.3714286,1.3714286,1.3714286,1.404878,1.404878,1.404878,1.404878,1.404878,1.404878,1.404878,1.404878,1.404878,1.404878,1.404878,1.44,1.44,1.44,1.44,1.44,1.44,1.44,1.44,1.44,1.44,0.0,0.0,1.5157895,1.5157895,0.0,1.5157895,0.0,0.0,0.0,0.0,0.0,0.0,1.6,0.0,0.0,0.0,0.0,1.6,1.4769231,0.0,0.0,0.0,0.0,0.0,1.6,0.0,0.0,1.6941177,0.0,0.0,0.0,1.6941177,0.0,0.0,0.0,5.2363634,1.6941177,1.6941177,1.6457143,1.6457143,1.6457143,1.6941177,1.6941177,1.6941177,1.6941177,1.6457143,1.6457143,1.6457143,1.6941177,1.6457143,1.6457143,1.6457143,1.6457143,1.6457143,1.6457143,1.6941177,1.6457143,1.6457143,1.6457143,1.6457143,1.6457143,1.6457143,2.057143,1.6941177,1.6941177,1.6941177,1.6941177,1.6457143,1.6457143,1.6457143,2.057143,1.6457143,1.6457143,1.6457143,1.6457143,2.057143,2.057143,2.057143,2.057143,2.057143,2.057143,2.057143,2.057143,2.057143,2.057143,2.057143,2.057143,2.057143,2.057143,2.057143,2.057143,2.057143,2.057143,2.057143,2.057143,2.057143,2.057143,2.057143,2.057143,2.057143,2.057143,2.057143,2.057143,2.057143,2.057143,1.6457143,1.6457143,1.6457143,1.6941177,1.6941177,1.6941177,1.6941177,1.6941177,1.6941177,1.6941177,1.6941177,1.6941177,1.6941177,1.6941177,1.6941177,1.6941177,0.0,0.0,0.0,0.0
2.304,2.304,2.304,2.304,2.304,2.304,2.304,2.304,2.304,2.304,2.304,2.304,2.304,2.304,2.304,2.304,2.304,2.304,2.304,2.304,2.304,2.304,2.304,2.304,2.304,2.304,2.304,2.304,2.304,2.304,2.304,2.304,2.304,2.304,2.304,2.304,2.2153847,2.2153847,2.2153847,2.2153847,2.2153847,2.2153847,2.2153847,2.2153847,2.2153847,2.2153847,2.2153847,2.2153847,2.304,2.304,2.304,2.304,2.304,2.304,2.304,2.304,2.304,2.304,2.304,2.2153847,2.304,2.304,2.304,2.304,2.304,2.2153847,2.304,2.304,2.304,2.304,2.304,2.4,2.304,2.304,2.304,2.304,2.304,2.4,2.4,2.304,2.304,2.304,2.304,2.304,2.304,2.304,2.304,2.304,2.304,2.304,2.304,2.304,2.304,2.304,2.304,2.304,2.304,2.304,2.304,2.2153847,2.2153847,2.2153847,2.2153847,2.2153847,2.2153847,2.2153847,2.2153847,2.2153847,2.2153847,2.2153847,2.2153847,2.2153847,2.2153847,2.2153847,2.2153847,2.2153847,2.2153847,2.2153847,2.2153847,2.2153847,2.2153847,2.2153847,2.1333334,2.2153847,2.2153847,2.2153847,2.2153847,2.2153847,2.2153847,2.304,2.304,2.4,2.4,2.304,2.304,2.304,2.304,2.304,2.304,2.304,2.304,2.4,2.304,2.304,2.304,2.304,2.304,2.304,2.304,2.304,2.4,2.4,2.4,2.304,2.304,2.304,2.2153847,2.4,2.4,2.4,2.4,2.4,2.304,2.4,2.4,2.4,2.4,2.4,2.4,2.4,2.5043478,2.4,2.4,2.4,2.4,2.304,2.304,2.304,2.304,2.304,2.4,2.304,2.304,2.304,2.304,2.2153847,2.2153847,2.304,2.304,2.304,2.304,2.304,2.2153847,2.2153847,2.2153847,2.2153847,2.2153847,2.304,2.2153847,2.2153847,2.2153847,1.5567567,1.5567567,1.5567567,2.2153847,1.5567567,1.5567567,1.5567567,1.5157895,1.5157895,1.4769231,1.4769231,1.5157895,1.5157895,1.5157895,1.5157895,1.5157895,1.5157895,1.5157895,1.5157895,1.5157895,1.44,1.44,1.44,1.44,1.44,1.44,1.404878,1.404878,1.3714286,1.3714286,1.3395349,1.3714286,1.3714286,1.3395349,1.3395349,1.3395349,1.3395349,1.3395349,1.3395349,1.3090909,1.3090909,1.3090909,1.3090909,1.3090909,1.3090909,1.3395349,2.2153847,1.3395349,1.3395349,1.3395349,1.3395349,1.3395349,1.3395349,1.3395349,1.3395349,1.3090909,1.3090909,1.3090909,1.3090909,1.3090909,1.3395349,1.3090909,1.3090909,1.3090909,1.3090909,1.3090909,1.3395349,1.3395349,1.3395349,1.3395349,1.3395349,1.3395349,1.3395349,1.3395349,1.3395349,1.3395349,1.3395349,1.3395349,1.3395349,1.3395349,1.3395349,1.3395349,1.3395349,1.3395349,1.3395349,1.3395349,1.3714286,1.3714286,1.3714286,1.3714286,1.3714286,1.3714286,1.3714286,1.3714286,1.3714286,1.3714286,1.404878,1.404878,1.404878,1.404878,1.404878,1.404878,1.404878,1.404878,1.404878,1.404878,1.404878,1.44,1.44,1.44,1.44,1.44,1.44,1.44,1.44,1.44,1.44,1.44,1.44,1.44,0.0,0.0,1.5157895,1.5157895,0.0,1.5567567,1.5567567,0.0,0.0,0.0,0.0,0.0,1.6,1.5567567,1.8,1.8,0.0,0.0,0.0,0.0,0.0,0.0,0.0,1.6941177,1.6941177,1.6941177,0.0,0.0,0.0,0.0,0.0,0.0,0.0,0.0,1.6457143,1.6457143,1.6457143,1.6457143,1.6457143,1.6457143,1.6457143,1.6941177,1.6941177,1.6941177,1.6457143,1.6457143,1.6457143,1.6457143,1.6457143,1.6457143,1.6457143,1.6457143,1.6457143,1.6457143,1.6457143,1.6457143,1.6457143,1.6457143,1.6457143,1.6457143,1.6457143,1.6941177,1.6941177,1.6941177,1.6941177,1.6457143,1.6457143,1.6457143,1.6457143,2.057143,2.057143,1.6457143,1.6457143,1.6457143,1.6,1.6,2.057143,2.057143,2.057143,2.057143,2.057143,2.057143,2.057143,2.057143,2.057143,2.057143,2.057143,2.057143,2.057143,2.057143,2.057143,2.057143,2.057143,2.057143,2.057143,2.057143,2.057143,2.057143,2.057143,2.057143,2.057143,2.057143,2.057143,2.057143,2.057143,2.057143,1.28,1.6941177,1.6941177,1.6941177,1.6941177,1.6941177,1.6941177,1.6941177,1.6941177,1.6941177,1.6941177,1.6941177,1.6941177,1.6941177,5.76,0.0,0.0,0.0
2.304,2.304,2.304,2.304,2.304,2.304,2.304,2.304,2.304,2.304,2.304,2.304,2.304,2.304,2.304,2.2153847,2.304,2.304,2.304,2.304,2.304,2.304,2.304,2.304,2.304,2.304,2.304,2.304,2.304,2.304,2.304,2.304,2.304,2.304,2.304,2.304,2.304,2.304,2.304,2.304,2.2153847,2.2153847,2.2153847,2.2153847,2.2153847,2.2153847,2.2153847,2.2153847,2.304,2.304,2.304,2.304,2.304,2.4,2.304,2.304,2.304,2.2153847,2.2153847,2.2153847,2.304,2.304,2.304,2.304,2.304,2.304,2.304,2.304,2.304,2.304,2.304,2.304,2.304,2.304,2.304,2.304,2.304,2.304,2.304,2.304,2.304,2.304,2.304,2.304,2.304,2.304,2.304,2.304,2.304,2.304,2.304,2.304,2.304,2.304,2.304,2.304,2.304,2.304,2.2153847,2.304,2.2153847,2.2153847,2.7428572,2.2153847,2.2153847,2.2153847,2.2153847,2.2153847,2.2153847,2.2153847,2.2153847,2.2153847,2.2153847,2.2153847,2.2153847,2.2153847,2.2153847,2.2153847,2.2153847,2.2153847,2.2153847,2.2153847,2.2153847,2.2153847,2.2153847,2.2153847,2.2153847,2.2153847,2.2153847,2.304,2.304,2.304,2.4,2.4,2.304,2.304,2.304,2.304,2.304,2.304,2.304,2.304,2.304,2.304,2.304,2.304,2.304,2.304,2.304,2.304,2.4,2.4,2.304,2.304,2.304,2.4,2.2153847,2.2153847,2.4,2.4,2.2153847,2.4,2.4,2.4,2.4,2.4,2.4,2.4,2.4,2.4,2.4,2.4,2.4,2.4,2.4,2.4,2.304,2.304,2.304,2.4,2.4,2.4,2.304,2.304,2.304,2.304,2.304,2.4,2.4,2.304,2.304,2.2153847,2.2153847,2.2153847,2.2153847,2.2153847,2.2153847,2.2153847,1.5157895,2.2153847,1.5567567,1.5567567,1.5567567,2.2153847,1.6,1.6,2.2153847,1.5567567,1.5157895,1.4769231,1.4769231,1.4769231,1.4769231,1.5157895,1.5157895,1.5157895,1.5157895,1.44,1.5157895,1.5157895,1.44,1.44,1.44,1.44,1.44,1.44,1.44,1.404878,1.404878,1.3714286,1.3714286,1.3395349,1.3714286,1.3395349,1.3395349,1.3395349,1.3395349,1.3395349,1.3395349,1.3395349,1.3395349,1.3090909,1.3090909,1.3090909,1.3090909,1.3090909,1.3395349,2.2153847,1.3395349,1.3395349,1.3395349,1.3395349,1.3395349,1.3395349,1.3395349,1.3395349,1.3395349,1.3395349,1.3395349,1.3395349,1.3395349,1.3395349,1.3395349,1.3090909,1.3090909,1.3090909,1.3395349,1.3395349,1.3395349,1.3395349,1.3395349,1.3395349,1.3395349,1.3395349,1.3395349,1.3395349,1.3395349,1.3395349,1.3395349,1.3395349,1.3395349,1.3395349,1.3395349,1.3395349,1.3714286,1.3714286,1.3714286,1.3714286,1.3714286,1.3714286,1.3714286,1.3714286,1.3714286,1.3714286,1.3714286,1.3714286,1.404878,1.404878,1.404878,1.404878,1.404878,1.404878,1.404878,1.404878,1.404878,1.404878,1.404878,1.44,1.44,1.44,1.44,1.44,1.44,1.44,1.44,1.44,1.44,1.44,1.44,1.44,1.44,0.0,0.0,1.5157895,1.5157895,1.5157895,0.0,0.0,0.0,0.0,1.404878,0.0,0.0,0.0,0.0,1.8,1.8,1.8,0.0,0.0,1.6941177,0.0,0.0,0.0,0.0,0.0,0.0,1.8,1.8,0.0,0.0,0.0,0.0,0.0,1.6457143,1.6457143,1.6457143,1.6457143,1.6457143,1.6457143,1.6457143,1.6457143,1.6941177,1.6941177,1.6941177,1.6457143,1.6457143,1.6457143,1.6457143,1.6457143,1.6457143,1.6457143,1.6457143,1.6457143,1.6457143,1.6457143,1.6457143,1.6457143,1.6457143,1.6457143,1.6457143,1.6457143,1.6457143,2.057143,1.6941177,1.6941177,1.6941177,1.6457143,1.6457143,1.6457143,1.6457143,1.6457143,1.6457143,1.6457143,1.6457143,2.057143,1.6,2.057143,1.6457143,2.057143,2.057143,2.057143,2.057143,1.6941177,1.6941177,2.057143,2.057143,2.057143,2.057143,2.057143,2.057143,2.057143,2.057143,1.9862069,2.057143,2.057143,2.057143,2.057143,2.057143,2.057143,2.057143,2.057143,2.057143,2.057143,2.057143,2.057143,1.28,1.6941177,1.6941177,1.6941177,1.6941177,1.6941177,1.6941177,1.6941177,1.6941177,1.6941177,1.6941177,1.6941177,1.6941177,1.6941177,0.0,5.76,5.76,0.0,0.0
2.2153847,2.2153847,2.304,2.304,2.304,2.304,2.304,2.304,2.304,2.304,2.304,2.304,2.304,2.304,2.304,2.304,2.304,2.304,2.304,2.304,2.304,2.304,2.304,2.304,2.304,2.304,2.304,2.304,2.304,2.304,2.304,2.304,2.304,2.304,2.304,2.304,2.304,2.2153847,2.2153847,2.2153847,2.2153847,2.2153847,2.2153847,2.2153847,2.2153847,2.304,2.304,2.304,2.304,2.304,2.304,2.304,2.304,2.4,2.304,2.304,2.304,2.304,2.1333334,2.1333334,2.304,2.304,2.304,2.304,2.304,2.304,2.304,2.304,2.304,2.304,2.304,2.304,2.304,2.304,2.304,2.304,2.304,2.304,2.304,2.304,2.304,2.304,2.304,2.304,2.304,2.304,2.304,2.304,2.304,2.304,2.304,2.304,2.304,2.304,2.304,2.304,2.304,2.304,2.2153847,2.2153847,2.2153847,2.2153847,2.2153847,2.2153847,2.2153847,2.2153847,2.2153847,2.2153847,2.1333334,2.2153847,2.2153847,2.2153847,2.2153847,2.2153847,2.2153847,2.2153847,2.2153847,2.2153847,2.2153847,2.2153847,2.2153847,2.2153847,2.2153847,2.2153847,2.2153847,2.2153847,2.2153847,2.2153847,2.304,2.304,2.304,2.304,2.4,2.4,2.304,2.304,2.304,2.304,2.304,2.304,2.304,2.304,2.304,2.304,2.304,2.304,2.304,2.304,2.4,2.4,2.4,2.4,2.4,2.304,2.304,2.304,2.2153847,2.2153847,2.4,2.4,2.4,2.4,2.4,2.4,2.4,2.4,2.4,2.4,2.4,2.4,2.4,2.4,2.4,2.4,2.4,2.4,2.304,2.4,2.4,2.4,2.4,2.4,2.4,2.304,2.304,2.304,2.304,2.4,2.4,2.304,2.304,2.304,2.2153847,2.2153847,2.2153847,2.2153847,2.2153847,2.2153847,2.2153847,2.2153847,2.2153847,1.5567567,1.5567567,1.5567567,2.2153847,2.2153847,1.5157895,1.5157895,1.5157895,1.4769231,1.4769231,1.4769231,1.4769231,1.5157895,1.5157895,1.5157895,1.5157895,1.5157895,1.5157895,1.5157895,1.44,1.44,1.44,1.44,1.44,1.44,1.44,1.44,1.404878,1.404878,1.404878,1.3714286,1.3395349,1.3395349,1.3395349,1.3395349,1.3395349,1.3395349,1.3395349,1.3395349,1.3395349,1.3395349,1.3395349,1.3395349,1.3395349,1.3395349,1.3395349,1.3395349,1.3395349,1.3395349,1.3395349,1.3395349,1.3395349,1.3395349,1.3395349,1.3395349,1.3395349,1.3395349,1.3395349,1.3395349,1.3395349,1.3395349,1.3395349,1.3395349,1.3395349,1.3395349,1.3395349,1.3395349,1.3395349,1.3395349,1.3395349,1.3395349,1.3395349,1.3395349,1.3395349,1.3395349,1.3395349,1.3395349,1.3395349,1.3395349,1.3395349,1.3395349,1.3714286,1.3714286,1.3714286,1.3714286,1.3714286,1.3714286,1.3714286,1.3714286,1.3714286,1.3714286,1.3714286,1.3714286,1.3714286,1.404878,1.3714286,1.404878,1.404878,1.404878,1.404878,1.404878,1.404878,1.404878,1.404878,1.404878,1.404878,1.404878,1.44,1.44,1.44,1.44,1.44,1.44,1.44,1.44,1.44,1.44,1.44,1.44,1.44,0.0,0.0,1.4769231,1.4769231,1.4769231,1.4769231,0.0,0.0,0.0,0.0,0.0,0.0,0.0,0.0,0.0,1.8,1.8,1.8,1.8,1.6941177,1.6941177,0.0,0.0,1.6941177,0.0,0.0,1.8,1.8,1.8,0.0,0.0,1.6,1.6457143,1.6457143,1.6457143,1.6457143,1.6457143,1.6457143,1.6457143,1.6457143,1.6457143,1.6457143,1.6941177,1.6941177,1.6457143,1.6457143,1.6457143,1.6457143,1.6457143,1.6457143,1.6457143,1.6457143,1.6457143,1.6457143,1.6457143,1.6457143,1.6457143,1.6457143,1.6457143,1.6457143,1.6457143,1.6457143,1.6941177,1.6941177,1.6941177,1.6457143,1.6457143,1.6457143,0.0,1.6457143,1.6457143,1.6457143,1.6457143,1.6457143,2.057143,1.6457143,1.6457143,1.6457143,1.6,2.057143,2.057143,2.057143,1.6941177,2.057143,1.6,1.6,2.057143,2.057143,2.057143,2.057143,2.057143,2.057143,2.057143,2.057143,2.057143,2.057143,2.057143,2.057143,2.057143,2.057143,2.057143,1.6457143,1.6457143,1.6457143,2.057143,1.6941177,1.6941177,2.2153847,2.2153847,2.2153847,1.6941177,1.6941177,1.6941177,1.6941177,1.6941177,1.6941177,1.6941177,1.6941177,1.6941177,0.0,5.76,5.76,2.057143,0.0
2.304,2.304,2.304,2.304,2.304,2.304,2.304,2.304,2.304,2.304,2.304,2.304,2.304,2.304,2.304,2.304,2.304,2.2153847,2.2153847,2.304,2.304,2.304,2.304,2.304,2.304,2.304,2.304,2.304,2.304,2.304,2.304,2.304,2.304,2.304,2.304,2.304,2.304,2.2153847,2.2153847,2.2153847,2.2153847,2.2153847,2.2153847,2.2153847,2.4,2.4,2.4,2.304,2.304,2.304,2.304,2.4,2.4,2.4,2.304,2.304,2.304,2.304,2.1333334,2.1333334,2.304,2.304,2.304,2.304,2.304,2.304,2.304,2.304,2.304,2.304,2.304,2.304,2.304,2.304,2.304,2.304,2.304,2.304,2.304,2.304,2.304,2.304,2.304,2.304,2.304,2.304,2.304,2.304,2.304,2.304,2.304,2.304,2.304,2.304,2.304,2.304,2.304,2.2153847,2.2153847,2.2153847,2.2153847,2.2153847,2.2153847,2.2153847,2.2153847,2.2153847,2.2153847,2.2153847,2.2153847,2.2153847,2.304,2.304,2.2153847,2.2153847,2.2153847,2.2153847,2.2153847,2.2153847,2.2153847,2.2153847,2.2153847,2.2153847,2.304,2.304,2.304,2.304,2.2153847,2.2153847,2.4,2.4,2.304,2.304,2.4,2.4,2.304,2.304,2.304,2.304,2.304,2.304,2.304,2.304,2.4,2.304,2.304,2.304,2.304,2.304,2.4,2.4,2.4,2.4,2.304,2.304,2.4,2.2153847,2.2153847,2.2153847,2.4,2.4,2.4,2.4,2.4,2.4,2.4,2.4,2.4,2.4,2.4,2.4,2.4,2.4,2.4,2.4,2.4,2.4,2.304,2.304,2.4,2.4,2.4,2.4,2.304,2.304,2.304,2.304,2.4,2.4,2.4,2.304,2.304,2.304,2.304,2.2153847,2.2153847,2.2153847,1.5567567,1.5567567,2.2153847,1.6,1.6,1.6,1.5567567,1.5567567,2.2153847,1.5157895,1.5567567,1.5157895,1.5157895,1.5157895,1.4769231,1.4769231,1.4769231,1.5157895,1.5157895,1.5157895,1.5157895,1.5157895,1.5157895,1.5157895,1.44,1.44,1.44,1.44,1.44,1.44,1.44,1.44,1.44,1.404878,1.404878,1.404878,1.3395349,1.3395349,1.3395349,1.3395349,1.3395349,1.3395349,1.3395349,1.3395349,1.3395349,1.3395349,1.3395349,1.3395349,1.3395349,1.3395349,1.3395349,1.3395349,1.3395349,1.3395349,1.3395349,1.3395349,1.3395349,1.3395349,1.3395349,1.3395349,1.3395349,1.3395349,1.3395349,1.3395349,1.3395349,1.3395349,1.3395349,1.3395349,1.3395349,1.3714286,1.3714286,1.3714286,1.3714286,1.3714286,1.3714286,1.3395349,1.3395349,1.3395349,1.3395349,1.3395349,1.3395349,1.3395349,1.3395349,1.3714286,1.3714286,1.3714286,1.3395349,1.3395349,1.3714286,1.3714286,1.3714286,1.3714286,1.3714286,1.3714286,1.3714286,1.3714286,1.3714286,1.3714286,1.404878,1.404878,1.3714286,1.404878,1.404878,1.404878,1.404878,1.404878,1.404878,1.404878,1.44,1.404878,1.404878,1.44,1.44,1.44,1.44,1.44,1.44,1.44,1.44,1.44,1.44,1.44,1.44,1.44,1.44,1.44,0.0,1.4769231,1.4769231,1.4769231,0.0,0.0,0.0,0.0,1.5157895,0.0,0.0,0.0,0.0,0.0,0.0,0.0,0.0,1.7454545,1.7454545,1.6941177,1.6941177,1.6941177,1.6941177,0.0,0.0,0.0,0.0,0.0,0.0,0.0,1.6,1.6,1.6457143,1.6457143,1.6457143,1.6457143,1.6457143,1.6457143,1.6457143,1.6457143,1.6457143,1.6457143,1.6457143,1.6457143,1.6457143,1.6457143,1.6457143,1.6457143,1.6457143,1.6457143,1.6457143,1.6457143,1.6457143,1.6457143,1.6457143,1.6457143,1.6457143,1.6457143,1.6,1.6457143,1.6457143,1.6457143,1.6457143,1.6,0.0,1.6457143,1.6457143,0.0,0.0,0.0,0.0,1.6457143,1.6457143,1.6457143,1.6457143,1.6457143,1.6,1.6,2.057143,2.057143,1.6457143,2.057143,2.057143,1.6,1.6,2.057143,2.057143,2.057143,1.44,2.057143,2.057143,2.057143,2.057143,2.057143,2.057143,2.057143,2.057143,2.057143,2.057143,2.057143,2.057143,1.6941177,1.6941177,2.057143,1.6941177,1.6941177,1.6941177,2.2153847,2.2153847,1.6941177,1.6941177,1.6941177,1.6941177,1.6941177,1.6941177,1.6941177,0.0,0.0,6.4,5.76,5.76,0.0,0.0
2.304,2.304,2.304,2.304,2.304,2.304,2.304,2.304,2.304,2.304,2.304,2.304,2.304,2.304,2.304,2.304,2.304,2.2153847,2.304,2.304,2.304,2.304,2.304,2.304,2.304,2.304,2.304,2.304,2.304,2.304,2.304,2.304,2.304,2.304,2.304,2.304,2.304,1.92,1.92,2.304,2.4,2.304,2.304,2.304,2.304,2.4,2.4,2.304,2.304,2.304,2.304,2.304,2.304,2.304,2.304,2.304,2.304,2.304,2.304,2.1333334,2.1333334,2.304,2.304,2.304,2.2153847,2.304,2.304,2.304,2.304,2.304,2.2153847,2.2153847,2.2153847,2.304,2.304,2.2153847,2.304,2.304,2.304,2.304,2.304,2.304,2.304,2.304,2.304,2.304,2.304,2.304,2.304,2.304,2.304,2.304,2.304,2.304,2.304,2.304,2.2153847,2.2153847,2.2153847,2.2153847,2.2153847,2.2153847,2.2153847,2.2153847,2.2153847,2.2153847,2.2153847,2.2153847,2.304,2.304,2.2153847,2.2153847,2.2153847,2.2153847,2.2153847,2.2153847,2.2153847,2.2153847,2.2153847,2.2153847,2.2153847,2.304,2.304,2.304,2.2153847,2.2153847,2.4,2.4,2.4,2.4,2.4,2.4,2.304,2.4,2.304,2.304,2.304,2.304,2.304,2.304,2.304,2.304,2.4,2.304,2.304,2.304,2.304,2.304,2.304,2.5043478,2.4,2.4,2.4,2.4,2.304,2.4,2.4,2.4,2.4,2.4,2.4,2.4,2.4,2.6181817,2.4,2.7428572,2.4,2.4,2.4,2.4,2.4,2.4,2.4,2.4,2.4,2.4,2.304,2.304,2.4,2.4,2.4,2.304,2.304,2.304,1.44,2.304,2.304,2.4,2.304,2.304,2.304,2.304,2.304,2.2153847,2.2153847,1.5567567,1.5567567,1.5567567,2.2153847,1.6,1.6,1.6,1.5567567,1.5567567,1.5567567,1.5567567,1.5567567,1.5157895,1.5157895,1.5157895,1.4769231,1.4769231,1.4769231,1.5157895,1.5157895,1.5157895,1.5157895,1.5157895,1.44,1.5157895,1.4769231,1.4769231,1.4769231,1.44,1.44,1.44,1.44,1.44,1.44,1.404878,1.404878,1.3395349,1.3395349,1.3395349,1.3395349,1.3395349,1.3395349,1.3395349,1.3395349,1.3395349,1.3395349,1.3395349,1.3395349,1.3395349,1.3395349,1.3395349,1.3395349,1.3395349,1.3395349,1.3395349,1.3395349,1.3395349,1.3395349,1.3395349,1.3395349,1.3395349,1.3395349,1.3395349,1.3395349,1.3395349,1.3395349,1.3395349,1.3395349,1.3395349,1.3395349,1.3714286,1.3714286,1.3714286,1.3714286,1.3714286,1.3714286,1.3714286,1.3395349,1.3395349,1.3395349,1.3395349,1.3395349,1.3395349,1.3395349,1.3714286,1.3714286,1.3714286,1.3714286,1.3714286,1.3714286,1.3714286,1.3714286,1.3714286,1.3714286,1.3714286,1.3714286,1.404878,1.404878,1.3714286,1.3714286,1.3714286,1.404878,1.404878,1.404878,1.404878,1.404878,1.404878,1.404878,1.404878,1.44,1.404878,1.404878,1.44,1.4769231,1.44,1.44,1.44,1.44,1.44,1.44,1.44,1.44,1.44,1.44,1.44,1.44,1.44,0.0,0.0,0.0,1.44,0.0,0.0,0.0,0.0,0.0,0.0,0.0,0.0,0.0,0.0,0.0,0.0,0.0,0.0,1.7454545,0.0,1.6,1.6941177,1.6,0.0,0.0,2.4,0.0,0.0,0.0,1.6,1.6,1.6,4.114286,1.6457143,1.6457143,1.6457143,1.6457143,1.6457143,1.6457143,1.6457143,1.6457143,1.6457143,1.6457143,1.6457143,1.6457143,1.6457143,1.6457143,1.6457143,1.6457143,1.6457143,1.6457143,1.6457143,1.6457143,1.6457143,1.6457143,1.6457143,1.6457143,1.6457143,1.6457143,1.6457143,1.6457143,0.0,0.0,1.6,0.0,1.6457143,0.0,0.0,1.6941177,0.0,0.0,0.0,0.0,1.6457143,0.0,1.6457143,1.6457143,1.6457143,2.057143,1.6,2.057143,1.6,1.6,1.6,1.6,2.057143,1.6457143,2.057143,2.057143,2.057143,2.057143,2.057143,2.057143,2.057143,2.057143,2.057143,2.057143,1.3395349,2.057143,2.057143,2.057143,1.6941177,2.057143,1.6941177,1.6941177,1.6941177,1.6941177,2.2153847,1.6941177,1.6941177,1.6941177,1.6941177,1.6941177,1.6941177,1.6941177,1.6941177,0.0,0.0,0.0,5.76,5.76,0.0,2.057143
2.304,2.304,2.304,2.304,2.304,2.304,2.304,2.304,2.304,2.304,2.304,2.304,2.304,2.304,2.304,2.304,2.304,2.304,2.304,2.304,2.304,2.304,2.304,2.304,2.304,2.304,2.304,2.304,2.304,2.304,2.304,2.304,2.304,2.304,2.304,2.304,2.304,2.304,2.304,2.4,2.4,2.304,2.5043478,2.304,2.304,2.304,2.304,2.304,2.304,2.304,2.304,2.304,2.304,2.304,2.1333334,2.4,2.304,2.304,2.304,2.1333334,2.1333334,2.304,2.2153847,2.304,2.2153847,2.304,2.2153847,2.2153847,2.304,2.304,2.2153847,2.2153847,2.2153847,2.304,2.2153847,2.2153847,2.2153847,2.304,2.304,2.2153847,2.304,2.304,2.304,2.304,2.304,2.304,2.304,2.304,2.304,2.304,2.304,2.304,2.304,2.304,2.304,2.304,2.304,2.2153847,2.2153847,2.2153847,2.2153847,2.2153847,2.2153847,2.2153847,2.2153847,2.2153847,2.2153847,2.2153847,2.2153847,2.304,2.2153847,2.2153847,2.2153847,2.2153847,2.2153847,2.2153847,2.2153847,2.2153847,2.2153847,2.2153847,2.2153847,2.304,2.304,2.304,2.4,2.4,2.4,1.7454545,2.4,0.0,2.4,2.4,2.4,2.4,2.4,2.4,2.304,2.304,2.304,2.304,2.4,2.4,2.4,2.4,2.4,2.4,2.4,2.4,2.4,2.5043478,2.4,2.4,2.4,2.4,2.4,2.4,2.4,2.4,2.4,2.4,2.4,2.6181817,2.4,2.4,2.4,2.4,2.4,2.4,2.4,2.4,2.4,2.4,2.4,2.4,2.4,2.304,2.304,2.4,2.4,2.4,2.4,2.304,1.3090909,2.304,2.304,2.304,2.304,2.304,2.304,2.304,2.304,2.304,2.304,2.304,2.304,1.5567567,1.5567567,1.5567567,1.5567567,2.2153847,1.6,1.6,1.5567567,1.5567567,1.5567567,1.5567567,1.5157895,1.5157895,1.5157895,1.5157895,1.4769231,1.4769231,1.4769231,1.5157895,1.5157895,1.5157895,1.5157895,1.4769231,1.44,1.44,1.44,1.4769231,1.4769231,1.44,1.44,1.44,1.44,1.404878,1.44,1.404878,1.404878,1.3395349,1.44,1.3395349,1.3395349,1.3395349,1.3395349,1.3395349,1.3395349,1.3395349,1.3395349,1.3395349,1.3395349,1.3395349,1.3395349,1.3395349,1.3395349,1.3395349,1.3395349,1.3395349,1.3395349,1.3395349,1.3395349,1.3395349,1.3395349,1.3395349,1.3395349,1.3395349,1.3395349,1.3395349,1.3395349,1.3395349,1.3395349,1.3395349,1.3395349,1.3714286,1.3714286,1.3714286,1.3714286,1.3714286,1.3714286,1.3395349,1.3395349,1.3395349,1.3395349,1.3395349,1.3395349,1.3395349,1.3395349,1.3714286,1.3714286,1.3714286,1.3714286,1.3714286,1.3714286,1.3714286,1.3714286,1.3714286,1.3714286,1.3714286,1.3714286,1.3714286,1.3714286,1.3714286,1.3714286,1.3714286,1.404878,1.404878,1.404878,1.404878,1.404878,1.404878,1.404878,1.404878,1.44,1.404878,1.44,1.44,1.4769231,1.44,1.44,1.44,1.44,1.44,1.44,1.44,1.44,1.44,1.44,1.44,1.44,0.0,1.4769231,0.0,0.0,1.44,1.44,0.0,0.0,0.0,0.0,0.0,0.0,0.0,0.0,0.0,0.0,0.0,0.0,1.7454545,1.7454545,1.6,1.6,1.6,1.6,0.0,0.0,2.4,0.0,1.5567567,0.0,1.6,1.6,1.6,4.114286,1.6457143,1.6457143,1.6457143,1.6457143,1.6457143,1.6457143,1.6457143,1.6457143,1.6457143,1.6457143,1.6457143,1.6457143,1.6457143,1.6457143,1.6457143,1.6457143,1.6457143,1.6457143,1.6457143,1.6457143,1.6457143,1.6941177,1.6457143,1.6457143,1.6457143,1.6457143,1.5157895,1.5157895,0.0,0.0,0.0,0.0,0.0,0.0,1.6941177,1.6941177,0.0,0.0,0.0,0.0,1.6457143,1.6457143,1.6457143,0.0,1.6457143,1.6,2.057143,2.057143,2.057143,1.6457143,2.057143,1.6457143,1.6457143,1.6457143,2.057143,2.057143,2.057143,2.057143,2.057143,2.057143,2.057143,2.057143,2.057143,2.057143,2.057143,2.057143,1.6457143,1.6457143,2.057143,1.6941177,1.6941177,1.6941177,1.6941177,1.6457143,1.6941177,1.6941177,1.6941177,1.6941177,1.6941177,1.6941177,1.6941177,1.6941177,0.0,0.0,0.0,6.4,5.76,0.0,2.057143,0.0
2.304,2.304,2.304,2.304,2.304,2.304,2.304,2.304,2.304,2.304,2.304,2.304,2.304,2.304,2.304,2.304,2.304,2.304,2.304,2.304,2.304,2.304,2.304,2.304,2.304,2.304,2.304,2.304,2.2153847,2.304,2.304,2.304,2.304,2.304,2.304,2.304,2.304,2.304,2.4,2.304,2.304,2.304,2.304,2.304,2.304,2.304,2.304,2.304,2.4,2.4,2.304,2.304,2.304,2.304,2.304,2.2153847,2.4,2.304,2.304,2.304,2.1333334,2.304,2.2153847,2.304,2.304,2.304,2.304,2.2153847,2.304,2.2153847,2.2153847,2.304,2.304,2.304,2.2153847,2.2153847,2.304,2.304,2.304,2.2153847,2.304,2.304,2.304,2.304,2.304,2.304,2.304,2.304,2.304,2.304,2.304,2.304,2.304,2.304,2.304,2.304,2.304,2.2153847,2.2153847,2.2153847,2.2153847,2.2153847,2.2153847,2.2153847,2.2153847,2.2153847,2.2153847,2.2153847,2.2153847,2.304,2.2153847,2.2153847,2.2153847,2.2153847,2.2153847,2.2153847,2.7428572,2.2153847,2.2153847,2.2153847,2.2153847,2.304,2.304,2.304,2.304,2.4,2.4,2.4,2.4,2.4,2.4,2.4,2.4,2.4,2.4,2.4,2.304,2.304,2.304,2.4,2.4,2.4,2.4,2.4,2.4,2.4,2.4,2.4,2.4,2.4,2.4,2.4,2.4,2.4,2.4,2.4,2.4,2.4,2.4,2.4,2.4,2.4,2.4,2.4,2.4,2.4,2.4,2.4,2.4,2.4,2.4,2.4,2.4,2.4,2.4,2.304,2.304,2.304,2.4,2.4,2.304,2.304,2.304,2.304,2.304,2.304,2.304,2.304,2.304,2.304,2.304,2.304,2.304,2.304,2.304,1.6,1.6,1.5567567,1.5567567,1.5567567,1.5567567,1.5567567,1.5567567,1.5567567,1.5567567,1.5157895,1.5157895,1.5157895,1.5157895,1.5157895,1.4769231,1.4769231,1.5157895,1.5157895,1.4769231,1.4769231,1.4769231,1.4769231,1.404878,1.44,1.44,1.4769231,1.4769231,1.44,1.44,1.44,1.44,1.44,1.44,1.404878,1.404878,1.44,1.44,1.3395349,1.3395349,1.3395349,1.3395349,1.3395349,1.3395349,1.3395349,1.3395349,1.3395349,1.3395349,1.3395349,1.3395349,1.3395349,1.3395349,1.3395349,1.3395349,1.3395349,1.3395349,1.3395349,1.3395349,1.3395349,1.3395349,1.3395349,1.3395349,1.3395349,1.3395349,1.3395349,1.3395349,1.3395349,1.3714286,1.3395349,1.3714286,1.3395349,1.3714286,1.3395349,1.3714286,1.3395349,1.3395349,1.3395349,1.3395349,1.3714286,1.3395349,1.3395349,1.3395349,1.3714286,1.3714286,1.3714286,1.3714286,1.3714286,1.3714286,1.3714286,1.3714286,1.3714286,1.3714286,1.3714286,1.3714286,1.3714286,1.3714286,1.3714286,1.3714286,1.3714286,1.3714286,1.404878,1.404878,1.404878,1.404878,1.404878,1.404878,1.404878,1.404878,1.404878,1.44,1.404878,1.44,1.44,1.44,1.4769231,1.44,1.44,1.44,1.44,1.44,1.44,1.44,1.44,1.44,1.44,1.44,1.44,0.0,0.0,0.0,1.44,1.44,0.0,0.0,0.0,0.0,0.0,0.0,0.0,0.0,0.0,0.0,1.8,0.0,1.8,0.0,0.0,0.0,1.6,1.6,0.0,1.5567567,1.5567567,1.5567567,0.0,0.0,0.0,1.6,1.6,1.6,1.6,1.6457143,1.6457143,1.6457143,1.6457143,1.6457143,1.6457143,1.6457143,1.6457143,1.6457143,1.6457143,1.6457143,1.6457143,1.6457143,1.6457143,1.6457143,1.6457143,1.6457143,1.6457143,1.6457143,1.6457143,1.6941177,1.6457143,0.0,1.6457143,1.6457143,1.5157895,1.6457143,1.6457143,1.404878,0.0,0.0,0.0,0.0,0.0,1.6941177,0.0,0.0,0.0,1.6,0.0,1.6,1.6,1.6,0.0,0.0,1.6457143,2.057143,1.6457143,2.057143,1.6457143,1.6457143,1.6457143,1.6457143,2.057143,2.057143,2.057143,2.057143,2.057143,2.057143,2.057143,2.057143,2.057143,2.057143,2.057143,2.057143,1.6941177,1.6941177,1.6457143,1.6457143,1.6457143,1.6941177,1.6941177,1.6941177,1.6941177,1.6941177,1.6941177,1.6941177,1.6941177,1.6941177,1.6941177,1.6941177,0.0,0.0,0.0,0.0,5.76,0.0,2.057143,2.057143
2.304,2.304,2.304,2.304,2.304,2.304,2.304,2.304,2.304,2.304,2.304,2.304,2.304,2.304,2.304,2.304,2.304,2.304,2.304,2.304,2.304,2.304,2.304,2.304,2.304,2.304,2.304,2.304,2.304,2.304,2.4,2.304,2.304,2.304,2.304,2.4,2.4,2.304,2.304,2.304,2.304,2.304,2.304,2.304,2.304,2.304,2.304,2.304,2.4,2.4,2.304,2.2153847,2.304,2.304,2.304,2.304,2.304,2.304,2.2153847,2.304,2.1333334,2.304,2.2153847,2.304,2.304,2.304,2.304,2.2153847,2.304,2.2153847,2.304,2.2153847,2.304,2.304,2.304,2.2153847,2.304,2.304,2.2153847,2.2153847,2.304,2.304,2.304,2.304,2.304,2.304,2.304,2.304,2.304,2.304,2.304,2.304,2.304,2.304,2.304,2.304,2.304,2.304,2.2153847,2.2153847,2.2153847,2.2153847,2.2153847,2.2153847,2.2153847,2.2153847,2.2153847,2.2153847,2.304,2.304,2.2153847,2.2153847,2.2153847,2.2153847,2.2153847,2.2153847,2.2153847,3.2,2.7428572,2.2153847,2.304,2.304,2.4,2.4,2.4,2.4,2.4,2.4,2.4,2.304,2.4,2.4,2.4,2.4,2.4,2.4,2.4,2.4,2.4,2.4,2.4,2.4,2.4,2.4,2.4,2.4,2.4,2.4,2.5043478,2.4,2.4,2.4,2.4,2.4,2.4,2.4,2.4,2.4,2.4,2.4,2.4,2.4,2.4,2.4,2.4,2.4,2.4,2.4,2.4,2.4,2.4,2.4,2.4,2.4,2.304,2.304,2.304,2.304,2.4,2.4,2.304,2.304,2.304,2.304,2.304,2.304,2.304,2.304,2.304,2.304,2.304,2.304,2.304,2.304,1.6,1.6,1.6,1.5567567,1.5567567,1.5567567,1.5567567,1.5567567,1.5567567,1.5157895,1.5567567,1.5157895,1.5157895,1.5157895,1.5157895,1.4769231,1.4769231,1.4769231,1.5157895,1.4769231,1.4769231,1.4769231,1.4769231,1.4769231,1.44,1.44,1.44,1.44,1.44,1.44,1.44,1.44,1.44,1.44,1.44,1.44,1.404878,1.44,1.44,1.3395349,1.3395349,1.3395349,1.3395349,1.3395349,1.3395349,1.3395349,1.3395349,1.3395349,1.3395349,1.3395349,1.3395349,1.3395349,1.3395349,1.3395349,1.3395349,1.3395349,1.3395349,1.3395349,1.3395349,1.3714286,1.3395349,1.3395349,1.3395349,1.3714286,1.3395349,1.404878,1.3395349,1.3395349,1.3395349,1.3395349,1.3395349,1.3714286,1.3395349,1.3395349,1.5567567,1.3395349,1.3395349,1.3395349,1.3395349,1.3714286,1.3714286,1.3714286,1.3714286,1.3714286,1.3714286,1.3714286,1.3714286,1.3714286,1.3714286,1.3714286,1.3714286,1.3714286,1.3714286,1.3714286,1.3714286,1.3714286,1.404878,1.3714286,1.3714286,1.3714286,1.404878,1.404878,1.404878,1.404878,1.404878,1.404878,1.404878,1.44,1.44,1.404878,1.404878,1.404878,1.44,1.44,1.44,1.4769231,1.44,1.44,1.44,1.44,1.44,1.44,1.44,1.44,1.44,1.44,1.4769231,1.44,1.44,0.0,1.4769231,1.4769231,1.4769231,1.4769231,1.4769231,0.0,0.0,0.0,0.0,0.0,0.0,0.0,0.0,0.0,0.0,0.0,1.92,1.92,1.5567567,0.0,0.0,0.0,1.5567567,1.5567567,0.0,0.0,0.0,0.0,1.6457143,0.0,1.6,1.6,1.6457143,1.6457143,1.6457143,1.6457143,1.6457143,1.6457143,1.6457143,1.6457143,1.6457143,1.6457143,1.6457143,1.6457143,1.6457143,1.6457143,1.6457143,1.6457143,1.6457143,1.6457143,1.6457143,1.5567567,1.6941177,1.6457143,1.5567567,1.5157895,1.5157895,1.5157895,1.6457143,1.6457143,0.0,0.0,0.0,0.0,0.0,0.0,0.0,0.0,0.0,0.0,1.6,1.6,1.6,0.0,1.6,1.6,1.6,0.0,0.0,1.6457143,1.6457143,1.6457143,1.6457143,1.6457143,1.6457143,1.6457143,1.6457143,2.057143,2.057143,2.057143,2.057143,2.057143,2.057143,2.057143,2.057143,2.057143,2.057143,1.6941177,1.6457143,1.6457143,1.6457143,1.6457143,1.6941177,1.6941177,1.6941177,1.6941177,1.6941177,1.6941177,1.6941177,1.6941177,1.6941177,0.0,0.0,0.0,0.0,0.0,0.0,0.0,2.057143,5.76,5.76
2.304,2.304,2.304,2.304,2.304,2.304,2.304,2.304,2.304,2.304,2.304,2.304,2.304,2.304,2.304,2.304,2.304,2.304,2.304,2.304,2.304,2.304,2.304,2.304,2.304,2.304,2.304,2.304,2.304,2.304,2.304,2.304,2.304,2.304,2.304,2.4,2.304,2.304,2.304,2.304,2.304,2.304,2.304,2.304,1.5157895,2.304,2.304,2.304,2.4,2.304,2.304,2.304,2.304,2.304,2.304,2.304,2.304,2.304,2.304,2.304,2.304,2.304,2.5043478,2.304,2.304,2.304,2.304,2.304,2.2153847,2.304,2.304,3.84,2.304,2.304,2.304,2.304,2.304,2.304,2.304,2.304,2.304,2.304,2.304,2.304,2.304,2.304,2.304,2.304,2.304,2.304,2.304,2.304,2.304,2.304,2.304,2.304,2.304,2.304,19.2,2.2153847,2.2153847,1.1294118,2.2153847,2.2153847,2.2153847,2.2153847,2.2153847,2.304,2.304,2.304,2.2153847,2.2153847,2.2153847,2.2153847,2.2153847,2.2153847,2.2153847,2.2153847,2.2153847,2.2153847,2.4,2.4,2.4,2.4,2.4,2.4,2.4,2.4,2.4,2.4,2.4,2.4,2.4,2.4,2.4,2.4,2.4,2.4,2.4,2.4,2.4,2.4,2.4,2.4,2.4,2.4,2.4,2.4,2.4,2.4,2.4,2.4,2.4,2.4,2.4,2.4,2.4,2.4,2.4,2.4,2.4,2.4,2.4,2.4,2.4,2.4,2.4,2.4,2.4,2.4,2.4,2.4,2.4,2.4,2.4,2.304,2.304,2.4,2.304,2.4,2.4,2.4,2.304,2.304,2.304,2.304,2.304,2.304,2.304,2.304,2.304,2.304,2.304,1.6,1.6,1.6,1.6,1.5567567,1.5567567,1.5567567,1.5567567,1.5157895,1.5157895,1.5157895,1.5157895,1.5157895,1.5157895,1.5157895,1.4769231,1.4769231,1.4769231,1.4769231,1.4769231,1.4769231,1.4769231,1.4769231,1.4769231,1.4769231,1.44,1.44,1.44,1.44,1.4769231,1.4769231,1.44,1.44,1.44,1.44,1.44,1.44,1.44,1.44,1.404878,1.3395349,1.3395349,1.3395349,1.3395349,1.3395349,1.5567567,1.5567567,1.3395349,1.3395349,1.3395349,1.3395349,1.3395349,1.3395349,1.3395349,1.3395349,1.3395349,1.3395349,1.3395349,1.3714286,1.3714286,1.3395349,1.3395349,1.3395349,1.3395349,1.3395349,1.3395349,1.3395349,1.3395349,1.3395349,1.3395349,1.3395349,1.3395349,1.3395349,1.3395349,1.5157895,1.3395349,1.3395349,1.3395349,1.3395349,1.3714286,1.3714286,1.3714286,1.3714286,1.3714286,1.3714286,1.3714286,1.3714286,1.3714286,1.3714286,1.3714286,1.3714286,1.3714286,1.3714286,1.3714286,1.3714286,1.3714286,1.404878,1.3714286,1.44,1.44,1.44,1.44,1.404878,1.404878,1.404878,1.404878,1.404878,1.404878,1.404878,1.44,1.44,1.44,1.44,1.44,1.44,1.44,1.44,1.44,1.44,1.44,1.44,1.44,1.44,1.44,1.44,1.44,1.44,1.4769231,0.0,1.4769231,0.0,0.0,1.5157895,1.5157895,1.5157895,1.5157895,1.5157895,0.0,0.0,0.0,0.0,0.0,0.0,0.0,0.0,0.0,0.0,1.92,0.0,0.0,0.0,0.0,1.5567567,1.5567567,1.5567567,1.5567567,0.0,0.0,0.0,1.6,1.6,1.6,1.6,1.6,1.6457143,1.6457143,1.6457143,1.6457143,1.6457143,1.6457143,1.6457143,1.6457143,1.6457143,1.6457143,1.6457143,1.6457143,1.6457143,1.6,1.6,1.6,1.6,1.6457143,1.6457143,1.6457143,1.6457143,1.5567567,1.5567567,1.5157895,1.5157895,1.6457143,0.0,0.0,0.0,1.5157895,0.0,0.0,0.0,0.0,0.0,1.6,1.6,1.6,1.6,1.6,1.6,1.6,0.0,1.6,0.0,0.0,1.6457143,1.6457143,1.6457143,1.6457143,1.6457143,2.057143,2.057143,1.6457143,1.6457143,1.6457143,2.057143,2.057143,2.057143,2.057143,2.057143,2.057143,1.6457143,1.6457143,1.6457143,1.6457143,2.057143,0.0,0.0,0.0,1.6941177,1.6941177,0.0,0.0,0.0,1.6941177,1.6941177,0.0,0.0,0.0,0.0,0.0,0.0,0.0,0.0,2.057143,5.76,0.0
2.304,2.304,2.304,2.304,2.304,2.304,2.304,2.304,2.2153847,2.304,2.304,2.304,2.304,2.304,2.304,2.304,2.304,2.304,2.304,2.304,2.304,2.304,2.304,2.304,2.304,2.304,2.304,2.304,2.304,2.304,2.304,2.304,2.304,2.304,2.304,2.304,2.304,2.304,2.304,2.304,2.304,2.304,2.304,2.304,2.304,2.304,2.304,2.304,2.4,2.304,2.304,2.304,2.304,2.304,2.304,2.304,2.304,2.304,2.304,2.304,2.304,2.304,2.304,2.304,2.304,2.304,2.304,2.304,2.304,2.304,2.304,2.304,2.304,2.304,2.304,2.304,2.304,2.2153847,2.304,2.304,2.304,2.304,2.304,2.304,2.304,2.2153847,2.2153847,2.2153847,2.304,2.2153847,2.304,2.304,2.304,2.304,2.304,2.304,2.304,2.304,2.304,2.2153847,2.2153847,2.2153847,2.2153847,2.2153847,2.2153847,2.304,2.304,2.2153847,2.304,2.2153847,2.1333334,2.1333334,2.2153847,2.2153847,2.2153847,2.2153847,2.2153847,2.2153847,2.4,2.4,2.4,2.4,2.4,2.4,2.4,2.4,2.4,2.4,2.4,2.4,2.4,2.4,2.4,2.4,2.4,2.4,2.4,2.4,2.4,2.4,2.4,2.4,2.5043478,2.4,2.4,2.4,2.4,2.4,2.4,2.5043478,2.4,2.4,2.4,2.4,2.4,2.4,2.4,2.4,2.4,2.4,2.4,2.4,2.4,2.4,2.4,2.4,2.4,2.4,2.4,2.4,2.4,2.4,2.4,2.4,2.4,2.4,2.4,2.4,2.4,2.4,2.4,2.4,2.4,2.4,2.4,2.4,2.304,2.304,2.304,2.304,2.304,2.304,1.6,1.6,1.6,1.6,1.6,1.6,1.6,1.5157895,1.5157895,1.5157895,1.5157895,1.5157895,1.5157895,1.5157895,1.5157895,1.5157895,1.4769231,1.4769231,1.4769231,1.4769231,1.4769231,1.4769231,1.4769231,1.4769231,1.4769231,1.4769231,1.4769231,1.44,1.44,1.44,1.4769231,1.4769231,1.4769231,1.44,1.44,1.44,1.44,1.44,1.44,1.404878,1.404878,1.404878,1.3395349,1.3395349,1.3395349,1.3395349,1.5567567,1.5567567,1.3714286,1.3395349,1.3395349,1.3395349,1.3395349,1.3395349,1.3395349,1.3395349,1.3395349,1.3395349,1.3395349,1.3714286,1.3395349,1.3395349,1.3395349,1.3395349,1.3395349,1.3395349,1.3395349,1.3395349,1.404878,1.404878,1.3395349,1.3395349,1.3395349,1.3395349,1.3395349,1.5157895,1.3395349,1.3395349,1.3395349,1.404878,1.404878,1.404878,1.404878,1.3714286,1.3714286,1.3714286,1.3714286,1.3714286,1.3714286,1.3714286,1.3714286,1.3714286,1.3714286,1.3714286,1.3714286,1.3714286,1.3714286,1.404878,1.3714286,1.44,1.44,1.44,1.44,1.44,1.44,1.404878,1.404878,1.404878,1.404878,1.404878,1.44,1.44,1.44,1.44,1.44,1.44,1.44,1.4769231,1.44,1.44,1.44,1.44,1.44,1.44,1.44,1.44,1.44,1.44,1.44,1.5157895,1.4769231,0.0,1.4769231,0.0,1.5157895,0.0,1.5157895,0.0,0.0,1.5567567,0.0,1.4769231,1.4769231,1.4769231,0.0,0.0,0.0,1.92,0.0,1.9862069,0.0,0.0,0.0,1.5567567,1.5567567,1.5567567,1.5567567,0.0,0.0,1.6457143,1.6457143,1.6,1.6,1.6,1.6,1.6457143,1.6457143,1.6457143,1.6457143,1.6457143,1.6457143,1.6,1.6457143,1.6457143,1.6457143,1.6457143,1.6457143,1.6457143,1.6457143,1.6,1.6,1.6,1.6457143,1.6457143,1.6457143,1.6457143,1.6457143,1.6,1.6457143,1.6457143,1.6457143,0.0,0.0,0.0,0.0,0.0,0.0,0.0,1.6,1.6,1.6,1.6,1.6,1.6,1.6,0.0,1.6457143,1.6457143,0.0,0.0,0.0,1.404878,0.0,1.5157895,0.0,2.057143,2.057143,2.057143,1.6457143,1.6457143,1.6457143,2.057143,2.057143,2.057143,2.057143,2.057143,2.057143,1.6457143,1.6457143,1.6457143,1.6457143,1.6457143,0.0,0.0,1.6457143,1.6457143,1.6457143,1.6457143,0.0,0.0,0.0,0.0,0.0,0.0,0.0,0.0,0.0,0.0,0.0,2.057143,2.057143,2.057143,0.0
2.304,2.304,2.304,2.304,2.304,2.304,2.304,2.304,2.304,2.304,2.304,2.304,2.304,2.304,2.304,2.304,2.304,2.304,2.304,2.304,2.304,2.304,2.304,2.304,2.304,2.304,2.304,2.304,2.304,2.304,2.304,2.304,2.304,2.2153847,1.0285715,2.304,2.304,2.304,2.304,2.304,2.304,2.304,2.304,2.304,2.304,2.304,2.304,2.304,2.304,2.304,2.304,2.304,2.304,2.304,2.304,2.304,2.304,2.304,2.304,2.304,2.304,2.304,2.304,2.4,2.304,2.304,2.304,2.304,2.304,2.304,2.304,2.304,2.304,2.304,2.304,2.2153847,2.2153847,2.2153847,2.2153847,2.304,2.304,2.304,2.304,2.304,2.2153847,2.304,2.304,2.304,2.304,2.304,2.304,2.304,2.304,2.304,2.304,2.304,2.304,2.2153847,2.2153847,2.2153847,2.2153847,2.2153847,2.2153847,2.2153847,2.2153847,2.2153847,2.2153847,2.2153847,2.2153847,2.2153847,2.1333334,2.1333334,2.2153847,2.2153847,2.7428572,2.7428572,2.4,2.4,2.4,2.4,2.4,2.4,2.4,2.4,2.4,2.4,2.4,2.4,2.4,2.4,2.4,2.4,2.4,2.4,2.4,2.4,2.4,2.4,2.4,2.4,2.4,2.4,2.5043478,2.5043478,2.4,2.4,2.4,2.4,2.5043478,2.5043478,2.4,2.4,5.76,2.4,2.4,28.8,2.4,2.4,2.4,2.4,2.4,2.4,2.4,2.4,2.4,2.4,2.4,2.4,2.4,2.4,2.4,2.4,2.4,2.4,2.4,2.4,2.4,2.4,2.4,2.4,2.4,2.4,2.4,2.4,2.4,2.4,2.4,2.304,2.304,2.304,2.304,1.6,1.6,1.6,1.6,1.6,1.6,1.6,1.6,1.6,1.5157895,1.5157895,1.5157895,1.5157895,1.5157895,1.5157895,1.5157895,1.5157895,1.4769231,1.4769231,1.4769231,1.4769231,1.4769231,1.4769231,1.5157895,1.4769231,1.4769231,1.44,1.44,1.4769231,1.4769231,1.44,1.4769231,1.4769231,1.4769231,1.0666667,1.44,1.44,1.44,1.44,1.44,1.44,1.404878,1.404878,1.3714286,1.3714286,1.3714286,1.3395349,1.5567567,1.3395349,1.3714286,1.3395349,1.3395349,1.3395349,1.3395349,1.3395349,1.3395349,1.3395349,1.3395349,1.3395349,1.3395349,1.3395349,1.3395349,1.3395349,1.3395349,1.3395349,1.3395349,1.3395349,1.3395349,1.3395349,1.404878,1.3395349,1.3395349,1.3395349,1.3395349,1.4769231,1.4769231,1.3395349,1.3395349,1.3714286,1.3714286,1.404878,1.404878,1.404878,1.404878,1.3714286,1.3714286,1.3714286,1.3714286,1.3714286,1.3714286,1.3714286,1.3714286,1.3714286,1.3714286,1.3714286,1.3714286,1.3714286,1.3714286,1.404878,1.404878,1.404878,1.3714286,1.44,1.44,1.44,1.44,1.404878,1.404878,1.404878,1.404878,1.44,1.44,1.4769231,1.44,1.44,1.44,1.44,1.44,1.44,1.44,1.44,1.44,1.44,1.4769231,1.4769231,1.4769231,1.4769231,1.4769231,1.44,1.5157895,1.5157895,1.5157895,1.5157895,0.0,1.5157895,1.4769231,0.0,0.0,0.0,1.6,1.6,1.4769231,1.4769231,1.4769231,1.4769231,1.4769231,1.8580645,0.0,1.92,0.0,0.0,0.0,0.0,0.0,0.0,1.5567567,1.5567567,1.5567567,0.0,1.6,1.6,1.6,1.6,1.6,1.6,1.6,1.6457143,1.6457143,1.6457143,1.6,1.6,1.6,1.6,1.6457143,1.6457143,1.6457143,1.6457143,1.6457143,1.6457143,1.6457143,1.6457143,1.6,1.6,1.6,1.6457143,1.6457143,1.6457143,1.6,1.6,1.6,1.6,0.0,0.0,0.0,0.0,0.0,0.0,0.0,1.5567567,0.0,1.6,1.6,1.6,1.6,1.6,1.6,0.0,0.0,1.6457143,0.0,0.0,1.6457143,0.0,0.0,0.0,0.0,2.057143,2.057143,2.057143,2.057143,2.057143,1.6457143,2.057143,2.057143,1.6457143,2.057143,2.057143,1.6457143,1.6457143,1.6457143,1.6457143,1.6457143,1.6457143,0.0,0.0,1.6457143,1.6457143,1.6457143,1.6457143,1.6457143,0.0,0.0,0.0,0.0,0.0,0.0,0.0,0.0,0.0,0.0,2.057143,0.0,0.0,0.0
2.304,2.304,2.304,2.304,2.304,2.304,2.304,2.304,2.304,2.304,2.304,2.304,2.304,2.304,2.304,2.304,2.304,2.304,2.304,2.304,2.304,2.304,2.304,2.304,2.304,2.304,2.304,2.304,2.304,2.304,2.304,2.304,2.2153847,2.2153847,2.2153847,2.2153847,2.304,2.304,2.304,2.304,2.304,2.304,2.304,2.304,2.304,2.304,2.304,2.304,2.304,2.304,2.304,2.304,2.304,2.304,2.304,2.304,2.304,2.304,2.304,2.304,2.304,2.304,2.304,2.304,2.304,2.304,2.304,2.304,2.2153847,2.2153847,2.2153847,2.304,2.2153847,2.304,2.304,2.304,1.44,2.2153847,2.304,2.304,2.304,2.304,2.2153847,2.2153847,2.2153847,2.304,2.304,3.3882353,2.304,5.2363634,5.2363634,5.2363634,2.304,2.304,2.304,2.304,2.304,2.304,2.2153847,2.2153847,2.2153847,2.2153847,2.2153847,2.2153847,2.2153847,2.2153847,2.2153847,2.2153847,2.2153847,2.2153847,2.304,2.2153847,2.2153847,2.2153847,2.6181817,2.4,2.4,2.4,2.4,2.4,2.4,2.4,2.4,2.4,2.4,2.4,2.4,2.4,2.4,2.4,2.5043478,2.5043478,2.5043478,2.4,2.4,2.4,2.4,2.4,2.4,2.4,2.4,2.4,2.4,2.4,2.4,2.4,2.4,2.4,2.4,2.4,2.4,2.4,2.4,2.4,2.4,2.4,2.4,2.4,2.4,2.4,2.4,2.4,2.4,2.4,2.4,2.4,2.4,2.4,2.4,2.4,2.4,2.4,2.4,2.4,2.4,2.4,2.4,2.4,2.4,2.4,2.4,2.4,2.4,2.4,2.304,2.5043478,2.4,2.304,2.304,2.304,2.304,1.6,1.6,1.6,1.6,1.6,1.6,1.6,1.6,1.5157895,1.5157895,1.5157895,1.5157895,1.5157895,1.5157895,1.5157895,1.5157895,1.4769231,1.4769231,1.4769231,1.4769231,1.4769231,1.4769231,1.4769231,1.5157895,1.4769231,1.4769231,1.404878,1.404878,1.4769231,1.4769231,1.4769231,1.44,1.4769231,1.4769231,1.44,1.44,1.44,1.44,1.44,1.44,1.44,1.404878,1.404878,1.3714286,1.3714286,1.3714286,1.3714286,1.5567567,1.3714286,1.3714286,1.3395349,1.3395349,1.3395349,1.3395349,1.3395349,1.3395349,1.3395349,1.3395349,1.3395349,1.3714286,1.3714286,1.3395349,1.3395349,1.3395349,1.404878,1.404878,1.3395349,1.3395349,1.3395349,1.404878,1.3395349,1.3395349,1.3395349,1.3395349,1.4769231,1.4769231,1.3714286,1.3714286,1.3714286,1.3714286,1.404878,1.3714286,1.44,1.44,1.3714286,1.3714286,1.3714286,1.3714286,1.3714286,1.3714286,1.3714286,1.3714286,1.3714286,1.3714286,1.3714286,1.3714286,1.3714286,1.3714286,1.404878,1.404878,1.404878,1.404878,1.3714286,1.404878,1.44,1.44,1.404878,1.404878,1.404878,1.44,1.44,1.4769231,1.44,1.44,1.44,1.44,1.44,1.44,1.44,1.4769231,1.4769231,1.4769231,1.4769231,1.4769231,1.4769231,1.4769231,1.4769231,1.5157895,1.5157895,1.5157895,1.5157895,1.5157895,1.5157895,0.0,0.0,1.5157895,1.5157895,0.0,1.5567567,0.0,0.0,1.4769231,1.4769231,1.4769231,1.4769231,1.4769231,0.0,1.92,0.0,0.0,0.0,0.0,0.0,0.0,0.0,1.5567567,1.5567567,1.5567567,1.6,1.6,1.6,1.6457143,1.6,1.6,1.6,1.6,1.6457143,1.6457143,1.6,1.6,1.6,1.6,1.6,1.6457143,1.6457143,1.6457143,1.6457143,1.6457143,1.6457143,1.6457143,1.6457143,1.6457143,1.6,1.6,1.6,1.6457143,1.6,1.6,1.6,1.6,1.6,0.0,0.0,0.0,0.0,0.0,0.0,0.0,1.5567567,1.5567567,0.0,1.6,1.6,0.0,0.0,1.6457143,1.6457143,0.0,1.6457143,1.6457143,1.6457143,1.6457143,0.0,0.0,1.5567567,0.0,0.0,1.8580645,2.057143,1.6457143,2.057143,2.057143,1.6457143,1.6457143,1.6457143,2.057143,2.057143,2.057143,2.057143,2.057143,1.6457143,1.6,1.6,0.0,0.0,1.6457143,1.6457143,1.6457143,1.6457143,1.6457143,0.0,0.0,0.0,0.0,0.0,0.0,0.0,0.0,0.0,0.0,0.0,0.0,0.0,2.057143
2.304,2.304,2.304,2.304,2.304,2.2153847,2.304,2.304,2.304,2.304,2.304,2.304,2.304,2.304,2.304,2.304,2.304,2.304,2.304,2.304,2.304,2.304,2.2153847,2.304,2.304,2.304,2.304,2.304,2.304,2.304,2.304,2.304,2.2153847,2.2153847,2.2153847,2.2153847,2.2153847,2.304,2.304,2.304,2.304,2.304,2.304,2.304,2.304,2.304,2.304,2.304,2.304,2.304,2.304,2.304,2.304,2.304,2.304,2.304,2.304,2.304,2.304,2.304,2.304,2.304,2.304,2.304,2.304,2.304,2.304,2.304,3.031579,2.88,2.304,2.304,2.2153847,1.8580645,1.8580645,2.304,2.304,2.304,2.304,2.304,2.304,2.304,2.304,1.8,1.8,1.8,1.6,2.304,2.304,2.304,2.304,2.304,2.304,2.304,2.304,2.304,2.304,2.1333334,2.304,2.2153847,2.2153847,2.2153847,2.304,2.304,2.2153847,2.2153847,2.2153847,2.2153847,2.2153847,2.304,2.304,1.1755102,2.2153847,2.304,2.4,2.4,2.4,2.4,2.4,2.4,2.4,2.4,2.4,2.4,2.4,2.4,2.4,2.4,2.4,2.4,2.5043478,2.5043478,2.5043478,2.4,2.4,2.4,2.4,2.4,2.4,2.4,2.4,2.4,2.4,2.4,2.4,2.4,2.4,2.4,2.4,2.4,2.4,2.4,2.4,2.4,2.4,2.4,2.4,2.4,2.4,2.4,2.4,2.4,2.4,2.4,2.4,2.4,2.4,2.4,2.4,2.4,2.4,2.4,2.4,2.4,2.4,2.4,2.4,2.4,2.4,2.4,2.4,2.4,2.4,2.4,2.4,2.5043478,2.4,2.304,2.304,2.304,2.304,1.6,1.6,1.6,1.6,1.6,1.5157895,1.5157895,1.5157895,1.5157895,1.5157895,1.5157895,1.5157895,1.5157895,1.5157895,1.9862069,1.5157895,1.4769231,1.4769231,1.4769231,1.4769231,1.4769231,1.4769231,1.4769231,1.4769231,1.4769231,1.404878,1.4769231,1.4769231,1.44,1.4769231,1.4769231,1.4769231,1.4769231,1.4769231,1.4769231,1.44,1.44,1.44,1.44,1.44,1.44,1.404878,1.404878,1.44,1.3714286,1.3395349,1.3714286,1.5567567,1.3395349,1.3395349,1.3395349,1.3395349,1.3395349,1.3395349,1.3395349,1.3395349,1.3395349,1.3395349,1.3395349,1.3714286,1.3714286,1.3395349,1.3395349,1.3395349,1.404878,1.404878,1.3395349,1.3714286,1.3714286,1.3395349,1.3395349,1.3395349,1.3395349,1.3395349,1.3714286,1.3714286,1.3714286,1.3714286,1.3714286,1.3714286,1.3714286,1.3714286,1.404878,1.3714286,1.3714286,1.404878,1.3714286,1.3714286,1.3714286,1.3714286,1.3714286,1.3714286,1.3714286,1.404878,1.3714286,1.3714286,1.3714286,1.3714286,1.3714286,1.3714286,1.3714286,1.3714286,1.3714286,1.404878,1.404878,1.404878,1.404878,1.404878,1.404878,1.4769231,1.4769231,1.4769231,1.4769231,1.4769231,1.4769231,1.4769231,1.4769231,1.44,1.4769231,1.4769231,1.4769231,1.4769231,1.4769231,1.4769231,1.4769231,1.5157895,1.5157895,1.5157895,1.5157895,1.5157895,1.5157895,1.5157895,1.4769231,1.5157895,1.5157895,1.5157895,0.0,1.5567567,1.5567567,0.0,0.0,1.4769231,0.0,0.0,0.0,1.4769231,1.4769231,0.0,0.0,2.057143,0.0,0.0,0.0,0.0,0.0,1.5567567,1.5567567,1.5567567,1.6,1.6,1.6,1.6,1.6,1.6,1.6,1.6,1.6,1.6457143,1.6,1.6,1.6,1.6,1.6,1.6457143,1.6457143,1.6457143,1.6457143,1.6457143,1.6457143,1.6457143,1.6457143,1.6941177,1.6,1.6,1.6,1.6,1.6,1.6,1.6,1.6,1.6,1.6,1.6,0.0,0.0,0.0,0.0,1.5567567,1.5567567,1.5567567,0.0,1.6,1.6,0.0,0.0,0.0,1.6457143,0.0,1.6457143,0.0,0.0,0.0,0.0,0.0,1.6,1.6,1.6,1.6,2.057143,1.6457143,2.057143,1.6457143,1.6457143,1.6457143,1.6457143,1.6457143,1.6457143,1.6,1.6,1.6,1.6,1.6457143,1.6457143,1.6,0.0,1.6457143,1.6457143,1.6457143,1.6457143,1.6457143,0.0,0.0,0.0,0.0,0.0,0.0,0.0,0.0,0.0,0.0,0.0,0.0,0.0,2.057143
2.304,2.304,2.304,2.304,2.304,2.2153847,2.304,2.2153847,2.2153847,2.304,2.304,2.304,2.304,2.304,2.304,2.304,2.304,2.304,2.304,2.304,2.304,2.304,2.304,2.304,2.304,2.304,2.304,2.304,2.304,2.304,2.304,2.304,2.304,2.304,2.2153847,2.2153847,2.2153847,2.304,2.304,2.304,2.304,2.304,2.304,2.304,1.6941177,2.304,2.304,2.304,2.304,2.304,2.304,2.304,2.304,2.2153847,2.304,2.304,2.304,2.304,2.304,2.304,2.304,2.304,2.304,2.304,2.304,2.304,2.304,2.304,0.84705883,2.88,2.304,2.304,2.304,1.8580645,1.8580645,1.8580645,1.8580645,2.304,2.304,2.304,2.304,2.304,2.304,2.1333334,2.1333334,1.8,2.304,5.2363634,2.304,2.304,2.304,2.304,2.304,2.304,2.304,2.304,2.304,2.304,2.2153847,2.2153847,2.2153847,2.2153847,2.2153847,2.2153847,2.2153847,2.2153847,2.2153847,2.2153847,2.304,2.304,2.2153847,1.1755102,1.1755102,2.4,2.4,2.4,2.4,2.4,2.4,2.4,2.4,2.4,2.4,2.4,2.4,2.4,2.4,2.4,2.4,2.4,2.6181817,2.4,2.4,2.4,2.4,2.4,2.4,2.4,2.4,2.4,2.4,2.4,2.4,2.4,2.4,2.4,2.4,2.4,2.4,2.057143,2.4,2.4,2.4,2.4,2.4,2.4,2.4,2.4,2.4,2.4,2.4,2.4,2.4,2.4,2.4,2.4,2.4,2.4,2.4,2.4,2.4,2.4,2.4,2.4,2.4,2.4,2.4,2.4,2.4,2.4,2.4,2.4,2.5043478,2.5043478,2.4,2.4,2.304,2.304,2.4,2.4,1.6,1.6,1.6,1.6,1.6,1.6,1.5157895,1.5157895,1.5157895,1.5157895,1.6941177,1.5157895,1.5157895,1.5157895,1.5157895,1.5157895,1.5157895,1.4769231,1.4769231,1.4769231,1.4769231,1.4769231,1.4769231,1.4769231,1.4769231,1.4769231,1.4769231,1.4769231,1.4769231,1.4769231,1.4769231,1.4769231,1.4769231,1.4769231,1.4769231,1.4769231,1.44,1.44,1.44,1.44,1.44,1.44,1.404878,1.404878,1.44,1.3395349,1.3395349,1.3395349,1.5567567,1.3395349,1.3395349,1.5567567,1.3395349,1.3395349,1.3395349,1.3395349,1.3395349,1.3395349,1.3395349,1.3395349,1.3395349,1.3395349,1.3395349,1.404878,1.404878,1.404878,1.404878,1.3395349,1.3395349,1.3395349,1.3395349,1.3714286,1.3714286,1.3714286,1.3714286,1.3714286,1.3090909,1.3714286,1.3714286,1.3714286,1.3714286,1.3714286,1.3714286,1.3714286,1.3714286,1.3714286,1.3714286,1.3714286,1.3714286,1.3714286,1.3714286,1.3714286,1.3714286,1.3714286,1.404878,1.3714286,1.3714286,1.3714286,1.3714286,1.3714286,1.3714286,1.3714286,1.404878,1.3714286,1.404878,1.404878,1.404878,1.404878,1.4769231,1.4769231,1.4769231,1.4769231,1.4769231,1.4769231,1.4769231,1.4769231,1.4769231,1.4769231,1.4769231,1.4769231,1.4769231,1.4769231,1.4769231,1.4769231,1.4769231,1.5157895,1.5157895,1.5157895,1.5157895,1.5157895,1.5157895,1.5157895,1.5157895,1.5157895,1.5157895,1.5157895,1.5157895,0.0,0.0,0.0,1.6457143,1.6457143,0.0,0.0,0.0,0.0,1.4769231,1.4769231,0.0,1.9862069,1.5567567,0.0,0.0,0.0,0.0,0.0,0.0,1.5567567,1.6,1.6,1.6,1.6,1.6,1.6,1.6,1.6,1.6,1.6,1.6,1.6,1.6,1.6,1.6,1.6457143,1.6457143,1.6457143,1.6457143,1.6457143,1.6457143,1.6457143,1.6457143,1.6457143,1.6457143,1.6941177,1.6457143,1.6,1.6,1.6,1.6,1.6,1.6,1.6,1.6,0.0,0.0,1.5567567,1.5567567,1.5567567,1.5567567,1.5567567,1.5567567,0.0,1.6,0.0,0.0,0.0,0.0,1.6457143,1.6457143,1.6457143,0.0,0.0,0.0,1.6,0.0,1.6,0.0,1.6457143,1.6,1.6457143,1.6457143,1.6457143,1.6,1.6,1.6,1.6457143,1.6,1.6941177,1.6,1.6457143,1.6457143,1.6457143,1.6,1.6,1.6,1.6,0.0,1.6457143,1.6457143,1.6457143,0.0,0.0,0.0,0.0,0.0,0.0,0.0,0.0,0.0,0.0,0.0,0.0,0.0,2.1333334,2.1333334
2.2153847,2.2153847,2.2153847,2.2153847,2.2153847,2.2153847,2.2153847,2.2153847,2.2153847,2.2153847,2.2153847,2.2153847,2.304,2.304,2.304,2.304,2.304,2.304,2.304,2.304,2.304,2.2153847,2.2153847,2.304,2.304,2.304,2.304,2.304,2.304,2.304,2.304,2.304,2.304,2.304,2.304,2.2153847,2.2153847,2.304,2.304,2.304,2.304,2.304,2.304,2.304,2.304,2.304,2.304,2.304,2.304,2.304,2.304,2.304,2.304,2.304,2.304,2.304,2.304,2.304,2.304,2.304,2.304,2.304,2.304,2.304,2.304,2.304,2.304,2.304,2.304,2.4,2.4,2.304,2.304,1.8580645,2.304,2.304,2.304,1.8580645,2.304,2.304,2.304,2.304,2.304,2.2153847,2.304,2.304,2.304,2.304,2.304,2.304,2.304,2.304,2.304,0.8727273,0.8727273,2.304,2.304,2.1333334,2.304,2.304,2.2153847,2.304,2.2153847,2.2153847,2.2153847,2.2153847,2.2153847,2.2153847,2.2153847,2.2153847,2.2153847,2.4,2.4,2.4,2.4,2.4,2.4,2.4,2.4,2.4,2.4,2.304,2.304,2.304,2.4,2.4,2.4,2.4,2.4,2.4,2.4,2.4,2.4,2.4,2.4,2.4,2.4,2.4,2.5043478,2.4,2.4,2.4,2.4,2.4,2.4,2.4,2.4,2.4,2.4,2.4,2.4,2.4,2.4,2.4,2.4,2.4,2.4,2.4,2.4,2.4,2.4,2.4,2.4,2.4,2.4,2.4,2.4,2.4,2.4,2.4,2.5043478,2.5043478,2.5043478,2.5043478,2.4,2.4,2.4,2.4,2.4,2.4,2.4,2.4,2.5043478,2.5043478,2.4,2.4,2.304,1.6,1.6,1.6,1.6,1.6,1.6,1.6,1.5567567,1.5157895,1.5157895,1.5157895,1.5157895,1.6457143,1.5157895,1.5157895,1.5157895,1.5567567,1.5567567,1.5567567,1.5567567,1.5567567,1.4769231,1.4769231,1.4769231,1.4769231,1.4769231,1.4769231,1.4769231,1.4769231,1.4769231,1.4769231,1.4769231,1.5157895,1.4769231,1.4769231,1.4769231,1.4769231,1.4769231,1.4769231,1.44,1.44,1.44,1.44,1.44,1.44,1.44,1.44,1.44,1.44,1.3395349,1.3714286,1.9862069,1.5567567,1.5567567,1.5567567,1.3395349,1.3395349,1.3395349,1.3395349,1.3395349,1.3395349,1.3395349,1.3395349,1.3395349,1.3395349,1.3395349,1.404878,1.404878,1.404878,1.404878,1.3395349,1.3395349,1.3714286,1.3395349,1.404878,1.3395349,1.3714286,1.3395349,1.3090909,1.3714286,1.5157895,1.3714286,1.3395349,1.3714286,1.3714286,1.3714286,1.3714286,1.3714286,1.3714286,1.3714286,1.3714286,1.3714286,1.3714286,1.3714286,1.3714286,1.3714286,1.3714286,1.3714286,1.3714286,1.3714286,1.3714286,1.3714286,1.3714286,1.3714286,1.404878,1.404878,1.404878,1.404878,1.404878,1.404878,1.4769231,0.82285714,1.4769231,1.4769231,1.4769231,1.4769231,1.4769231,1.4769231,1.4769231,1.4769231,1.4769231,1.4769231,1.4769231,1.4769231,1.4769231,1.4769231,1.4769231,1.4769231,1.5157895,1.5157895,1.5157895,1.5157895,1.5157895,1.5157895,1.5157895,1.5157895,1.5157895,1.5157895,1.5157895,1.5157895,5.2363634,0.0,1.6457143,1.6457143,1.6457143,0.0,1.5157895,1.5157895,1.5157895,1.4769231,1.4769231,0.0,0.0,0.0,0.0,0.0,0.0,0.0,1.6941177,1.6,1.6,1.6,1.6,1.6,1.6,1.6,1.6,1.6,1.6,1.6457143,1.6,1.6,1.6,1.6,1.6,1.6,1.6,1.6,1.6,1.6,1.6,1.6,1.6,1.6,1.6,1.6,1.6941177,1.6457143,1.6,1.6,1.6,1.6,1.6,1.6,1.6,0.0,1.5567567,0.0,1.5567567,0.0,1.5567567,1.5567567,1.5567567,1.5567567,0.0,1.6,1.6,0.0,0.0,0.0,0.0,1.6457143,1.6457143,1.6,0.0,0.0,1.6,1.6,1.6,1.6,1.6,1.6,1.6,1.6,1.6,1.6,1.6,1.6,1.6,1.6,1.6,1.6,1.6457143,1.6,1.6,1.6,1.6,1.6,1.6,1.6,0.0,0.0,1.6,1.6,0.0,0.0,0.0,0.0,0.0,0.0,0.0,0.0,0.0,0.0,2.1333334,2.1333334,2.1333334,2.1333334
2.2153847,2.2153847,2.2153847,2.2153847,2.2153847,2.304,2.304,2.2153847,2.2153847,2.2153847,2.2153847,2.2153847,2.2153847,2.2153847,2.304,2.304,2.304,2.304,2.304,2.304,2.304,2.2153847,2.2153847,2.304,2.304,2.304,2.304,2.304,2.304,2.304,2.304,2.304,2.304,2.304,2.304,2.304,2.304,2.304,2.4,2.304,2.304,2.304,2.304,2.304,2.304,2.304,2.304,2.304,2.304,2.304,2.304,2.304,2.304,2.304,2.304,2.304,2.304,2.304,2.304,2.304,2.304,2.304,2.304,2.304,2.304,2.304,0.8597015,2.304,2.304,2.304,2.304,2.304,2.304,1.8580645,2.304,2.304,2.304,1.8580645,1.7454545,1.7454545,2.304,2.304,2.304,2.304,2.304,2.304,2.304,2.304,2.304,2.304,2.304,2.304,2.304,2.304,2.304,2.304,2.304,2.304,2.304,2.2153847,2.2153847,2.2153847,2.304,2.304,2.2153847,2.2153847,2.2153847,2.2153847,2.2153847,2.2153847,2.4,2.4,2.4,2.4,2.4,2.4,2.4,2.4,2.4,2.4,2.4,2.304,2.304,2.304,2.4,2.4,2.4,2.4,2.4,2.4,2.304,2.4,2.4,2.304,2.4,2.4,2.4,2.5043478,2.5043478,2.5043478,2.4,2.4,2.4,2.4,2.4,2.4,2.4,2.4,2.4,2.4,2.4,2.4,2.4,2.4,2.4,2.4,2.4,2.4,2.4,2.4,2.4,2.4,2.4,2.4,2.4,2.4,2.4,2.4,2.4,2.4,2.5043478,2.5043478,2.5043478,2.5043478,2.5043478,2.5043478,2.5043478,2.4,2.4,2.4,2.4,2.5043478,2.4,2.4,1.8580645,2.4,1.6,1.6,1.6,1.6,1.6,1.6,1.6,1.5567567,1.5567567,1.5157895,1.5157895,1.5157895,1.5157895,1.5567567,1.5567567,1.5157895,1.5157895,1.5157895,1.5157895,1.5567567,1.5567567,1.5157895,1.4769231,1.4769231,1.4769231,1.4769231,1.4769231,1.4769231,1.4769231,1.4769231,1.4769231,1.5157895,1.4769231,1.5567567,1.5157895,1.5157895,1.5157895,1.4769231,1.4769231,1.44,1.44,1.44,1.44,1.44,1.44,1.44,1.44,1.44,1.44,1.44,1.3714286,1.3714286,1.9862069,1.5567567,1.5567567,1.3714286,1.3395349,1.3395349,1.3395349,1.3395349,1.3395349,1.3395349,1.3395349,1.3395349,1.3395349,1.3395349,1.404878,1.404878,1.404878,1.404878,1.3714286,1.3395349,1.3714286,1.3714286,1.3395349,1.3395349,1.3714286,1.3714286,1.3714286,1.3714286,1.3714286,1.3714286,1.5567567,1.3714286,1.3714286,1.3714286,57.6,1.3714286,1.3714286,1.3714286,1.3714286,1.3714286,1.3714286,1.3714286,1.3714286,1.3714286,1.3714286,1.3714286,1.3714286,1.3714286,1.3714286,1.404878,1.404878,1.3714286,1.3714286,1.3714286,1.404878,1.404878,1.404878,1.4769231,1.4769231,1.4769231,1.4769231,1.4769231,1.4769231,1.4769231,1.4769231,1.4769231,1.4769231,1.4769231,1.4769231,1.4769231,1.4769231,1.4769231,1.4769231,1.4769231,1.4769231,1.4769231,1.5157895,1.5157895,1.5157895,1.5157895,1.5157895,1.5157895,1.5157895,1.5157895,1.5157895,1.5157895,1.5157895,1.5157895,1.5157895,5.76,0.0,1.6457143,1.6457143,0.0,1.5567567,1.5567567,1.5567567,0.0,0.0,0.0,0.0,1.6,0.0,0.0,1.6457143,0.0,0.0,1.6941177,1.5567567,1.5567567,1.6,1.6,1.6,1.6,1.6,1.6,1.6,1.6,1.6,1.6,1.6,1.6,1.6,1.6,1.6,1.6,1.6,1.6,1.6,1.6,1.6,1.6,1.6,1.6,1.6,1.6941177,1.6941177,1.6457143,1.6457143,1.6,1.6,1.6,1.6,1.6,0.0,1.5567567,0.0,1.6,0.0,1.5567567,1.5567567,1.5567567,1.5567567,0.0,1.6,1.6,0.0,0.0,1.6457143,1.6457143,1.6457143,1.6457143,0.0,0.0,0.0,1.6,1.6,1.6,1.6,1.6,1.6,1.6,1.6,1.6,1.6,1.6,1.6,1.6,1.6,1.6,1.6,1.6,1.6,1.6,1.6457143,1.6,1.6,1.6,1.6,1.6,1.6,1.6,0.0,0.0,0.0,0.0,0.0,0.0,0.0,0.0,0.0,1.6457143,0.0,2.1333334,2.1333334,2.1333334,2.1333334
2.2153847,2.2153847,2.2153847,2.2153847,2.2153847,2.2153847,2.2153847,2.2153847,2.2153847,2.2153847,2.2153847,2.2153847,2.2153847,2.304,2.304,2.304,2.304,2.304,2.304,2.304,2.304,2.304,2.304,2.304,2.304,2.304,2.304,2.304,2.304,2.304,2.304,2.304,2.304,2.304,2.304,2.4,2.4,2.4,2.4,2.4,2.304,2.304,2.304,2.2153847,2.304,2.2153847,2.304,2.304,2.304,2.304,2.304,2.304,2.304,2.4,2.4,2.304,2.304,2.304,2.304,2.304,2.304,2.304,2.304,2.304,2.304,2.304,2.304,2.304,2.304,2.304,2.304,2.304,2.304,2.304,2.304,2.304,2.304,1.8580645,2.304,2.304,2.304,2.304,2.304,2.304,2.304,2.304,2.304,2.304,2.304,2.304,2.304,2.304,2.304,2.304,2.304,2.304,2.304,2.304,2.304,2.304,2.304,2.304,2.304,2.304,2.2153847,2.4,2.2153847,2.2153847,2.2153847,2.2153847,2.4,2.4,2.4,2.4,2.4,2.4,2.4,2.4,2.4,2.304,2.304,2.304,2.304,2.304,2.4,2.4,2.4,2.4,2.4,2.4,2.4,2.4,2.304,2.304,2.4,2.4,2.5043478,2.4,2.4,2.4,2.4,2.4,2.4,2.4,2.4,2.4,2.4,2.4,2.4,2.2153847,2.4,2.4,2.4,2.4,2.4,2.4,2.4,2.4,2.4,2.4,2.4,2.4,2.4,2.4,2.4,2.4,2.4,2.4,2.4,2.4,2.5043478,2.5043478,2.5043478,2.5043478,2.5043478,2.5043478,2.5043478,2.4,2.4,2.4,2.4,2.4,2.4,2.4,2.4,1.6457143,2.4,1.6,1.6,1.6,1.6,1.5567567,1.5567567,1.5567567,1.5157895,1.5157895,1.5157895,1.5157895,1.5157895,1.5567567,1.5157895,1.5157895,1.5157895,1.5157895,1.5567567,1.5157895,1.5157895,1.5157895,1.4769231,1.4769231,1.4769231,1.4769231,1.4769231,1.4769231,1.4769231,1.4769231,1.4769231,1.4769231,1.4769231,1.5567567,1.5567567,1.5157895,1.5157895,1.4769231,1.404878,1.4769231,1.44,1.44,1.44,1.44,1.44,1.44,1.44,1.44,1.44,1.3714286,1.3714286,1.3714286,1.9862069,1.5567567,1.5567567,1.3714286,1.3714286,1.3395349,1.3395349,1.3395349,1.3395349,1.3395349,1.3395349,1.3395349,1.3395349,1.3395349,1.404878,1.404878,1.404878,1.3714286,1.3714286,1.3714286,1.3714286,1.3714286,1.3714286,1.3714286,1.3714286,1.3714286,1.3714286,1.3714286,1.3714286,1.3714286,1.3714286,1.3714286,1.3714286,1.3714286,57.6,1.3714286,1.3714286,1.3714286,1.3714286,1.3714286,1.3714286,1.3714286,1.3714286,1.3714286,1.3714286,1.3714286,1.3714286,1.3714286,1.3714286,1.3714286,1.404878,1.404878,1.3714286,1.3714286,1.3714286,1.404878,1.44,1.4769231,1.4769231,1.4769231,1.4769231,1.4769231,1.4769231,1.4769231,1.4769231,1.4769231,1.4769231,1.4769231,1.4769231,1.4769231,1.4769231,1.4769231,1.4769231,1.4769231,1.5157895,1.5157895,1.5157895,1.5157895,1.5157895,1.5157895,1.5157895,1.5157895,1.5157895,1.5157895,1.5567567,1.5157895,1.5157895,1.5157895,1.5157895,5.76,1.5567567,0.0,0.0,0.0,1.5567567,1.5567567,1.5567567,1.5567567,0.0,0.0,1.6,1.5567567,0.0,0.0,1.6457143,1.6457143,1.6,1.6,1.5567567,1.5567567,1.5567567,1.5567567,1.6,1.6,1.6,1.6,1.6,1.6,1.6,1.6,1.6,1.6,1.6,1.6,1.6,1.6,1.6,1.6,1.6,1.6,1.5567567,1.6,1.6,1.6,1.6,1.7454545,1.6457143,1.6457143,1.6457143,1.6457143,1.6,1.6,1.6,1.6,1.5567567,1.5567567,1.5567567,1.5567567,1.6,1.5567567,1.5567567,0.0,1.6,1.6,1.6,1.6,1.6,0.0,0.0,0.0,0.0,1.6941177,1.6457143,0.0,1.5567567,1.6,1.6,1.6,1.5567567,1.5567567,1.5567567,1.5567567,1.6,1.6,1.6,1.6,1.6,1.6,1.6,1.6,1.6,1.6,1.6,1.6,1.5567567,1.6,1.6,1.6,1.6,1.6,1.6,1.6,0.0,0.0,0.0,0.0,0.0,0.0,0.0,0.0,0.0,1.6457143,0.0,0.0,2.1333334,2.1333334,2.1333334
2.2153847,2.2153847,2.2153847,2.2153847,2.2153847,2.2153847,2.2153847,2.2153847,2.2153847,2.2153847,2.2153847,2.2153847,2.304,2.2153847,2.2153847,2.2153847,2.304,2.304,2.304,2.304,2.304,2.304,2.304,2.304,2.304,2.304,2.304,2.304,2.304,2.304,2.304,2.304,2.304,2.304,2.304,2.4,2.4,2.4,2.4,2.4,2.304,2.304,2.304,2.304,2.304,2.304,2.304,2.304,2.304,2.304,2.304,2.304,2.304,2.4,2.4,2.4,2.304,2.304,2.304,2.304,2.304,2.304,2.304,2.304,2.304,2.304,2.304,2.304,2.304,2.304,2.304,2.304,2.304,2.304,2.304,2.304,2.304,2.304,2.304,2.304,2.304,2.304,2.304,2.304,2.304,2.304,2.304,2.304,2.304,2.304,2.304,2.304,2.304,2.304,2.304,2.304,2.304,2.304,2.304,2.304,2.304,2.304,2.304,2.304,2.304,2.304,2.2153847,2.2153847,2.2153847,2.4,2.4,2.4,2.4,2.4,2.4,2.4,2.4,2.4,2.4,2.4,2.304,2.304,2.304,2.304,2.304,2.4,2.4,2.4,2.4,2.4,2.4,2.304,2.304,2.304,2.4,0.0,2.4,2.4,2.4,2.4,2.4,2.4,2.4,2.4,2.4,2.4,2.4,2.4,2.4,2.4,2.4,2.4,2.4,2.4,2.4,2.4,2.4,2.4,2.4,2.4,2.4,2.4,2.4,2.4,2.4,2.4,2.4,2.4,2.4,2.1333334,2.4,2.4,2.4,2.4,2.4,2.4,2.4,2.4,2.4,2.5043478,2.5043478,2.5043478,2.4,2.4,2.4,1.6457143,1.6457143,1.6,1.6,1.6,1.6,1.5567567,1.6,1.4769231,1.5157895,1.5157895,1.5157895,1.5157895,1.5157895,1.5157895,1.5157895,1.5157895,1.5157895,1.5157895,1.5157895,1.5157895,1.5157895,1.5157895,1.4769231,1.4769231,1.4769231,1.4769231,1.4769231,1.4769231,1.4769231,1.4769231,1.4769231,1.5157895,1.4769231,1.5157895,1.4769231,1.4769231,1.4769231,1.4769231,1.4769231,1.4769231,1.44,1.44,1.0867925,1.44,1.44,1.44,1.44,1.44,1.44,1.44,1.3714286,1.3714286,1.9862069,1.3714286,1.3714286,1.3714286,1.3714286,1.3395349,1.3395349,1.3395349,1.3395349,1.3395349,1.3714286,1.3714286,1.3395349,1.404878,1.404878,1.404878,1.404878,1.3714286,1.3714286,1.3714286,1.3714286,1.3714286,1.3714286,1.3714286,1.3714286,1.3714286,1.3714286,1.3714286,1.3714286,1.3714286,1.3714286,1.3714286,1.3714286,1.3714286,1.3714286,1.3714286,1.3714286,1.3714286,1.3714286,1.3714286,1.3714286,1.3714286,1.3714286,1.3714286,1.3714286,1.3714286,1.3714286,1.3714286,1.3714286,1.3714286,1.3714286,1.3714286,1.3714286,1.3714286,1.3714286,1.44,1.404878,0.82285714,0.82285714,1.4769231,1.4769231,1.4769231,1.4769231,1.4769231,1.4769231,1.4769231,1.4769231,1.4769231,1.4769231,1.4769231,1.4769231,1.4769231,1.4769231,1.4769231,1.5157895,1.5157895,1.5157895,1.5157895,1.5157895,1.5157895,1.5157895,1.5157895,1.5157895,1.5157895,1.5157895,1.5567567,1.5157895,1.5157895,1.5567567,1.5567567,1.5157895,0.0,0.0,0.0,1.5157895,0.0,1.5567567,1.5567567,1.5567567,1.5567567,0.0,1.6,0.0,1.6457143,1.6457143,1.6457143,1.6,1.5567567,1.5567567,1.5567567,1.6,1.6,1.6,1.6,1.6,1.6,1.6,1.6,1.6,1.6,1.6,1.6,1.6,1.6,1.6,1.6,1.6,1.6,1.6,1.6,1.6,1.6,1.6,1.6,1.6,1.7454545,1.6,1.6457143,1.6457143,1.6457143,1.6,1.6,1.6,1.6,1.5567567,1.5567567,1.5567567,1.5567567,1.5567567,1.5567567,1.5567567,0.0,1.6,0.0,0.0,1.6,1.6,0.0,1.6,0.0,1.6457143,1.6,1.6,1.6,1.5567567,1.6,1.6,1.6,1.5567567,1.5567567,1.5567567,1.6,1.6,1.5567567,1.5567567,1.5567567,1.5567567,1.6,1.6,1.6,1.6,1.6,1.6,1.6,1.6,1.6,1.6,1.6,1.6,1.6,1.6,1.6,0.0,0.0,0.0,0.0,0.0,0.0,0.0,0.0,2.057143,0.0,0.0,2.1333334,2.1333334,2.1333334,2.1333334
2.2153847,2.2153847,2.2153847,2.2153847,2.2153847,2.2153847,2.2153847,2.2153847,2.2153847,2.2153847,2.2153847,2.2153847,2.2153847,2.2153847,2.304,2.304,2.2153847,2.304,2.304,2.304,2.304,2.304,2.304,2.304,2.304,2.304,2.304,2.304,2.304,2.304,2.304,2.304,2.304,2.304,2.304,2.4,2.304,2.304,2.304,2.304,2.304,2.304,2.304,2.304,2.304,2.304,2.304,2.304,2.304,2.304,2.304,2.304,2.304,2.304,2.4,2.4,2.304,2.304,2.2153847,2.304,2.304,2.304,2.304,2.304,2.304,2.304,2.304,2.304,2.304,2.304,2.304,2.304,2.304,2.304,2.304,2.304,2.304,2.304,2.304,2.304,2.304,2.304,2.304,2.304,2.304,2.304,2.304,2.304,2.304,2.304,2.304,2.304,2.304,2.304,2.304,2.304,2.304,2.304,2.304,2.304,2.304,2.304,2.304,2.304,2.304,2.304,2.304,2.2153847,2.4,2.4,2.4,2.4,2.4,2.4,2.4,2.4,2.4,2.4,2.4,2.4,2.304,2.304,2.304,2.304,2.304,2.4,2.4,2.4,2.4,2.4,2.4,2.304,2.304,2.4,2.4,2.4,2.4,2.4,2.4,2.4,2.4,2.4,2.4,2.4,2.4,2.4,2.4,2.4,2.4,2.4,2.4,2.4,2.4,2.4,2.4,2.4,2.4,2.4,2.4,2.4,2.4,2.4,2.4,2.4,2.4,2.4,2.4,2.4,2.5043478,2.4,2.6181817,2.4,2.4,2.5043478,2.4,2.4,2.4,2.4,2.4,2.6181817,2.4,2.4,2.4,2.4,1.6457143,1.6457143,1.6457143,1.6457143,1.6,1.6,1.5567567,1.5567567,1.5567567,1.5567567,1.5157895,1.5157895,1.5157895,1.5157895,1.5157895,1.5157895,1.5157895,1.5157895,1.5157895,1.5157895,1.5157895,1.5157895,1.5157895,1.5157895,1.4769231,1.4769231,1.4769231,1.4769231,1.4769231,1.4769231,1.4769231,1.4769231,1.4769231,1.4769231,1.4769231,1.4769231,1.4769231,1.4769231,1.4769231,1.4769231,1.4769231,1.4769231,1.44,1.44,1.0867925,1.44,1.44,1.44,1.44,1.44,1.404878,1.44,1.3714286,1.3714286,1.3714286,1.3714286,1.3714286,1.3714286,1.3714286,1.3714286,1.3395349,1.3395349,1.3395349,1.3395349,1.3714286,1.3714286,1.3395349,1.404878,1.404878,1.404878,1.404878,0.0,1.3714286,1.3714286,1.3714286,1.3714286,1.3714286,1.3714286,1.3714286,1.4769231,1.3714286,1.3714286,1.3714286,1.3714286,1.3714286,1.3714286,1.3714286,1.3714286,1.3714286,1.3714286,1.3714286,1.3714286,1.3714286,1.3714286,1.3714286,1.3714286,1.3714286,1.3714286,1.3714286,1.3714286,1.3714286,1.3714286,1.3714286,1.3714286,1.3714286,1.3714286,1.3714286,1.3714286,1.44,1.44,1.44,1.44,1.44,1.44,1.4769231,1.4769231,1.4769231,1.4769231,1.4769231,1.4769231,1.4769231,1.4769231,1.4769231,1.4769231,1.4769231,1.4769231,1.4769231,1.4769231,1.5157895,1.5157895,1.5157895,1.5157895,1.5157895,1.5157895,1.5157895,1.5157895,1.5157895,1.5157895,1.5567567,1.5567567,1.5157895,1.5157895,1.5157895,1.5157895,1.5567567,0.0,0.0,1.5157895,0.0,1.5567567,1.5567567,1.5567567,0.0,1.5567567,0.0,1.6,1.6,0.0,1.6,1.6,1.5567567,1.5567567,1.6,1.6,1.6,1.6,1.6,1.6,1.6,1.6,1.6,1.6,1.6,1.6,1.6,1.6,1.6,1.6,1.6,1.6,1.6,1.6,1.6,1.6,1.6,1.6,1.6,1.6,1.6,1.6,1.6,1.6457143,1.6457143,1.6,1.6,1.6,1.6,1.6,1.5567567,1.5567567,1.5567567,1.5567567,1.5567567,1.5567567,1.5567567,1.5567567,1.5567567,1.5567567,1.5567567,0.0,1.6,0.0,1.6,1.6,1.6,1.6,1.6,1.6,1.6,1.5567567,1.6,1.6,1.6,1.6,1.5567567,1.6,1.5567567,1.5567567,1.5567567,1.5567567,1.5567567,1.5567567,1.6,1.6,1.6,1.6,1.5567567,1.6,1.6,1.6,1.6,1.6,1.6,1.6,1.6,0.0,0.0,0.0,0.0,0.0,0.0,0.0,0.0,2.057143,2.057143,0.0,0.0,2.1333334,2.1333334,0.0,0.0
2.2153847,2.2153847,2.2153847,2.2153847,2.2153847,2.2153847,2.2153847,2.2153847,2.2153847,2.2153847,2.2153847,2.2153847,2.2153847,2.2153847,2.2153847,2.304,2.2153847,2.304,2.304,2.304,2.304,2.304,2.2153847,2.2153847,2.304,2.304,2.304,2.304,2.304,2.304,2.304,2.304,2.304,2.304,2.304,2.304,2.304,2.304,2.304,2.304,2.304,2.304,2.304,2.304,2.304,2.304,2.304,2.304,2.304,2.304,2.304,2.304,2.304,2.304,2.4,2.4,2.304,2.304,2.304,2.304,2.304,2.304,2.304,2.304,2.304,2.304,2.304,2.304,2.304,2.304,2.304,2.304,2.304,2.304,2.304,2.304,2.304,2.304,2.304,2.4,2.304,2.304,2.304,2.304,2.304,2.304,2.304,2.304,2.304,2.304,2.304,2.304,2.304,2.304,2.304,2.304,2.304,2.304,2.304,2.304,2.304,2.304,2.304,2.304,2.304,2.304,2.4,2.304,2.4,2.4,2.4,2.4,2.4,2.4,2.4,2.4,2.4,2.4,2.4,2.4,2.304,2.304,2.304,2.304,2.304,2.304,2.4,2.4,2.4,2.4,2.304,2.304,2.304,2.304,2.304,2.4,2.4,2.4,2.4,2.4,2.4,2.4,2.4,2.4,2.4,2.4,2.4,2.4,2.4,2.4,2.4,2.4,2.4,2.4,2.4,2.4,2.4,2.4,2.4,2.4,2.4,2.4,2.4,2.4,2.4,2.4,2.4,2.4,2.4,2.4,2.6181817,2.6181817,2.5043478,2.5043478,2.4,2.4,2.4,2.4,2.4,2.4,2.4,2.4,2.4,2.4,1.6457143,1.6457143,1.6457143,1.6,1.6,1.5567567,1.5567567,1.5567567,1.5567567,1.5567567,1.5157895,1.5157895,1.5157895,1.5157895,1.5157895,1.5157895,1.5157895,1.5157895,1.5157895,1.5157895,1.5157895,1.5157895,1.5157895,1.5157895,1.5567567,1.4769231,1.4769231,1.4769231,1.4769231,1.4769231,1.4769231,1.4769231,1.4769231,1.4769231,1.4769231,1.44,1.4769231,1.4769231,1.4769231,1.4769231,1.4769231,1.4769231,1.44,1.44,1.44,1.44,1.44,1.44,1.44,1.44,1.404878,1.404878,1.44,1.3714286,1.3714286,1.3714286,1.3714286,1.3714286,1.3714286,1.3714286,1.3714286,1.3395349,1.3395349,1.3395349,1.3714286,1.3395349,1.404878,1.404878,0.0,1.404878,1.404878,0.0,0.0,0.0,0.0,1.3714286,1.3714286,1.3714286,1.3714286,1.3714286,1.3714286,1.3714286,1.3714286,1.3714286,1.3714286,1.3714286,1.3714286,1.3714286,1.3714286,1.3714286,1.3714286,1.3714286,1.3714286,1.3714286,1.3714286,1.3714286,1.3714286,1.3714286,1.3714286,1.3714286,1.3714286,1.3714286,1.3714286,1.3714286,1.3714286,1.3395349,1.3714286,1.44,1.44,1.404878,1.44,1.44,1.44,1.44,1.4769231,1.4769231,1.4769231,1.4769231,1.4769231,1.4769231,1.4769231,1.5157895,1.4769231,1.4769231,1.4769231,1.4769231,1.4769231,1.4769231,1.5157895,1.5157895,1.5157895,1.5157895,1.5157895,1.5157895,1.5157895,1.5157895,1.5157895,1.5567567,1.5567567,1.5567567,1.5157895,1.5157895,1.5157895,1.5157895,1.5157895,1.5157895,1.5157895,1.5157895,0.0,1.5567567,1.5567567,1.5567567,1.5157895,0.0,1.5567567,1.5567567,1.5567567,0.0,0.0,0.0,1.5567567,1.6,1.6,1.6,1.6,1.6,1.6,1.6,1.6,1.6,1.6,1.6,1.6,1.6,1.6,1.6,1.6,1.6,1.6,1.6,1.6,1.6,1.6,1.6,1.6,1.6,1.6,1.6,1.6,1.6,1.6,1.6,1.6,1.6,1.6,1.6,1.6,1.6,1.6,1.5567567,1.6,1.5567567,1.5567567,1.5567567,1.5567567,1.5567567,1.5567567,1.5567567,1.5567567,0.0,0.0,0.0,1.6,1.6,1.6,1.6,1.6,1.6,1.6,1.6,1.6,1.6,1.6,1.6,1.5567567,1.5567567,1.5567567,1.5567567,1.5567567,1.5567567,1.5567567,1.5567567,1.6,1.6,1.6,1.6,1.5567567,1.6,1.6,1.6,1.6,1.6,1.6,0.0,1.6,0.0,0.0,0.0,0.0,0.0,0.0,0.0,0.0,2.057143,0.0,0.0,0.0,0.0,2.1333334,0.0,2.2153847
2.2153847,2.2153847,2.2153847,2.2153847,2.2153847,2.2153847,2.2153847,2.2153847,2.2153847,2.2153847,2.2153847,2.2153847,2.2153847,2.2153847,2.2153847,2.2153847,2.2153847,2.2153847,2.2153847,2.2153847,2.2153847,2.2153847,2.2153847,2.2153847,2.304,2.304,2.304,2.2153847,2.2153847,2.2153847,2.304,2.304,2.304,2.304,2.304,2.304,2.304,2.2153847,2.2153847,2.304,2.2153847,2.304,2.304,2.304,2.304,2.304,2.304,2.304,2.304,2.304,2.304,2.304,2.4,2.304,2.4,2.4,2.4,2.4,2.304,2.304,2.304,2.304,2.304,2.304,2.304,2.304,2.304,2.304,2.304,2.304,2.304,2.304,2.304,2.304,2.304,2.304,2.304,2.304,2.304,2.304,2.304,2.304,2.304,2.304,2.304,2.304,2.304,2.304,2.304,2.304,2.304,2.304,2.304,2.304,2.304,2.304,2.304,2.304,1.0285715,2.304,2.304,2.4,2.4,2.4,2.304,2.304,2.4,2.4,2.4,2.4,2.4,2.4,2.4,2.4,2.4,2.4,2.4,2.4,2.4,2.4,2.4,2.4,2.4,2.304,2.304,2.304,2.4,2.4,2.4,2.304,2.4,2.4,2.304,2.4,2.304,2.4,2.4,2.4,2.4,2.4,2.4,2.4,2.4,2.4,2.4,2.4,2.4,2.4,2.4,2.4,2.4,2.4,2.4,2.4,2.4,2.4,2.4,2.4,2.4,2.4,2.4,2.4,2.4,2.4,2.4,2.4,2.4,2.4,2.4,2.4,2.4,2.4,2.5043478,2.5043478,2.4,2.4,2.4,2.4,2.4,2.4,2.4,2.4,2.4,1.6457143,1.6457143,1.6457143,1.6,1.6,1.5567567,1.5567567,1.5567567,1.5567567,1.5567567,1.5157895,1.5157895,1.5157895,1.5567567,1.5567567,1.5567567,1.5567567,1.5157895,1.5157895,1.5157895,1.5157895,1.5157895,1.5157895,1.5157895,1.5157895,1.5157895,1.4769231,1.4769231,1.4769231,1.4769231,1.5157895,1.4769231,1.4769231,1.4769231,1.4769231,1.4769231,1.4769231,1.4769231,1.4769231,1.4769231,1.4769231,1.4769231,1.4769231,1.44,1.44,1.4769231,1.44,1.44,1.44,1.44,1.44,1.404878,1.404878,1.3714286,1.3714286,1.3714286,1.3714286,1.3714286,1.3714286,1.3714286,1.3714286,1.3714286,1.3714286,0.0,0.0,0.0,1.404878,1.404878,1.404878,0.0,0.0,1.404878,1.404878,1.404878,0.0,0.0,0.0,1.3714286,1.3714286,1.3714286,1.3714286,1.3714286,1.3714286,1.3714286,1.3714286,1.3714286,1.3714286,1.3714286,1.3714286,1.3714286,1.3714286,1.3714286,1.3714286,1.3714286,1.3714286,1.3714286,1.3714286,1.3714286,1.3714286,1.3714286,1.3714286,1.3714286,1.3714286,1.3714286,1.3714286,1.3714286,1.3714286,1.44,1.44,1.44,1.44,1.44,1.44,1.44,1.4769231,1.4769231,1.4769231,1.4769231,1.4769231,1.4769231,1.4769231,1.4769231,1.5157895,1.4769231,1.4769231,1.4769231,1.4769231,1.4769231,1.4769231,1.5157895,1.5157895,1.5157895,1.5157895,1.5157895,1.4769231,1.5157895,1.5157895,1.5157895,1.5567567,1.5567567,1.5567567,1.5157895,1.5157895,1.5157895,1.5157895,1.5157895,1.5157895,1.5157895,1.5157895,0.0,1.5567567,1.5567567,1.5567567,0.0,0.0,1.5567567,0.0,0.0,1.5567567,1.5567567,1.5567567,1.5567567,1.6,1.6,1.6,1.5567567,1.6,1.6,1.6,1.6,1.6,1.6,1.6,1.6,1.6,1.6457143,1.6,1.6,1.6,1.6,1.6,1.6,1.6,1.6,1.6,1.6,1.6,1.6,1.6,1.6,1.6457143,1.6,1.5157895,1.6,1.6,1.6,1.6,1.6,1.6,1.6,1.6,1.6,1.5567567,1.5567567,1.5567567,1.5567567,1.5567567,1.5567567,1.5567567,1.5567567,0.0,1.6,1.6,1.6457143,1.6457143,1.6457143,1.6,1.6,1.5567567,1.6,1.5567567,1.5567567,1.6,1.6,1.6,1.5567567,1.5567567,1.5567567,1.5567567,1.5567567,1.5567567,1.5567567,1.5567567,1.5567567,1.6,1.6,1.5567567,1.5567567,1.6,1.6,1.6,1.6,1.6,1.6,0.0,1.6,0.0,0.0,0.0,0.0,0.0,0.0,0.0,0.0,0.0,0.0,0.0,0.0,0.0,2.1333334,0.0,2.2153847
2.2153847,2.2153847,2.2153847,2.2153847,2.2153847,2.2153847,2.2153847,2.2153847,2.2153847,2.2153847,2.2153847,2.2153847,2.2153847,2.2153847,2.2153847,2.2153847,2.2153847,2.2153847,2.2153847,2.2153847,2.2153847,2.2153847,2.304,2.304,2.304,2.304,2.304,2.2153847,2.2153847,2.304,2.304,2.304,2.304,2.304,2.304,2.304,2.2153847,2.2153847,2.304,2.304,2.2153847,2.304,2.304,2.304,2.304,2.304,2.304,2.304,2.304,2.304,2.304,2.4,2.4,2.4,2.4,2.4,2.304,2.304,2.304,2.304,2.304,2.304,2.304,2.304,2.304,2.304,2.304,2.304,2.304,2.304,2.304,2.304,2.304,2.304,2.304,2.304,2.304,2.304,2.304,2.304,2.304,2.304,2.304,2.304,2.304,2.304,2.304,2.304,2.304,2.304,2.304,2.304,2.304,2.304,2.304,2.304,2.304,2.304,2.304,2.304,2.304,2.4,2.4,2.4,2.304,2.304,2.4,2.304,2.4,2.4,2.4,2.4,2.4,2.304,2.304,2.304,2.4,2.4,2.4,2.4,2.304,2.304,2.304,2.304,2.4,2.4,2.304,2.304,2.304,2.304,2.304,2.4,2.4,2.304,2.304,2.4,2.4,2.4,2.4,2.4,2.4,2.4,2.4,2.4,2.4,2.4,2.4,2.4,2.4,2.4,2.4,2.4,2.4,2.4,2.5043478,2.4,2.4,2.4,2.4,2.4,2.4,2.4,2.4,2.4,2.4,2.4,2.4,2.4,2.4,2.4,2.4,2.4,2.4,2.4,2.4,2.4,2.4,2.4,2.4,2.4,2.4,2.4,1.6457143,1.6457143,1.6457143,1.6457143,1.6,1.6,1.5567567,1.5567567,1.5567567,1.5567567,1.5567567,1.5157895,1.5567567,1.5157895,1.5157895,1.5567567,1.5567567,1.5567567,1.5157895,1.5157895,1.5157895,1.5157895,1.5157895,1.5157895,1.5157895,1.5157895,1.5157895,1.5157895,1.4769231,1.4769231,1.4769231,1.5567567,1.4769231,1.4769231,1.4769231,1.4769231,1.4769231,1.4769231,1.4769231,1.4769231,1.4769231,1.4769231,2.304,1.4769231,1.44,1.4769231,1.4769231,1.4769231,1.4769231,1.4769231,1.44,1.44,1.404878,1.404878,1.404878,1.3714286,1.3714286,1.3714286,1.3714286,1.3714286,1.3714286,1.3714286,1.3714286,1.3714286,0.0,0.0,1.404878,1.404878,1.404878,1.404878,1.404878,0.0,1.44,1.404878,1.404878,0.0,0.0,0.0,1.3714286,1.44,1.44,1.3714286,1.3714286,1.3714286,1.3714286,1.404878,1.3714286,1.3714286,1.3714286,1.3714286,1.3714286,1.3714286,1.3714286,1.3714286,1.3714286,1.3714286,1.3714286,1.3714286,1.3714286,1.3714286,1.3714286,1.3714286,1.3714286,1.3714286,1.3714286,1.3714286,1.3714286,1.44,1.44,1.44,1.44,1.44,1.44,1.44,1.44,1.4769231,1.4769231,1.4769231,1.4769231,1.4769231,1.4769231,1.4769231,1.4769231,1.4769231,1.4769231,1.4769231,1.4769231,1.4769231,1.4769231,1.4769231,1.4769231,1.5157895,1.5157895,1.4769231,1.4769231,1.4769231,1.5157895,1.5157895,1.5157895,1.5157895,1.6,1.5567567,1.5157895,1.5157895,1.5157895,1.5157895,1.5157895,1.5157895,1.5157895,0.0,0.0,1.5567567,1.5567567,0.0,0.0,0.0,0.0,0.0,1.5157895,0.0,1.5567567,0.0,1.5567567,1.6,1.6,1.6,1.6,1.6,1.6,1.6,1.6,1.6,1.6,1.6,1.6457143,1.6457143,1.6457143,1.6457143,1.6,1.6,1.6,1.6457143,1.6,1.6,1.6,1.92,1.5567567,1.6,1.6,1.6,1.6,1.6,1.6,1.5157895,1.6,1.5567567,1.5567567,1.6,1.6,1.6,1.6,1.6,1.6,1.6,1.5567567,1.5567567,1.5567567,1.5567567,1.5567567,1.5567567,1.5567567,1.5567567,1.6,1.6,1.6,1.6,1.6,1.6457143,1.6,1.6,1.6,1.5567567,1.5567567,1.5567567,1.5567567,1.5567567,1.5567567,1.5567567,1.5567567,1.5567567,1.5567567,1.5567567,1.5567567,1.5567567,1.5567567,1.5567567,1.6,1.6,1.6,1.6,1.6,1.6,1.5567567,1.5567567,1.5567567,0.0,1.6,0.0,0.0,0.0,0.0,0.0,0.0,0.0,0.0,0.0,0.0,0.0,2.2153847,0.0,1.92,2.2153847,2.2153847
2.2153847,2.2153847,2.2153847,2.2153847,2.2153847,2.2153847,2.2153847,2.2153847,2.2153847,2.2153847,2.2153847,2.2153847,2.2153847,2.2153847,2.2153847,2.2153847,2.2153847,2.2153847,2.2153847,2.2153847,2.2153847,2.2153847,2.2153847,2.304,2.304,2.304,2.2153847,2.2153847,2.2153847,2.304,2.304,2.304,2.304,2.304,2.304,2.304,2.2153847,2.304,2.304,2.304,2.304,2.304,2.304,2.304,2.304,2.304,2.304,2.304,2.304,2.304,2.304,2.4,2.4,2.4,2.304,2.4,2.4,2.4,2.304,2.304,2.304,2.304,2.304,2.304,2.304,2.304,2.304,2.304,2.304,2.304,2.304,2.304,2.304,2.304,2.304,2.304,2.304,2.304,2.304,2.304,2.304,2.304,2.304,2.304,2.304,2.304,2.304,2.304,2.304,2.304,2.304,2.304,2.304,2.2153847,2.304,2.304,2.304,2.2153847,2.304,2.304,2.304,2.304,2.304,2.304,2.304,2.304,2.304,2.304,2.304,2.304,2.4,2.4,2.304,2.304,2.304,2.304,2.4,2.304,2.304,2.304,2.304,2.304,2.304,2.304,2.4,2.4,2.4,2.304,2.304,2.304,2.304,2.304,2.304,2.304,2.4,2.4,2.4,2.4,2.4,2.4,2.4,2.4,2.4,2.4,2.4,2.4,2.4,2.4,2.4,2.4,2.4,2.4,2.4,2.5043478,2.4,2.4,2.4,2.4,2.4,2.4,2.4,2.4,2.4,2.4,2.4,2.4,2.4,2.4,2.4,2.4,2.4,2.304,2.304,2.4,2.4,2.4,2.4,2.4,2.4,2.4,2.4,2.4,1.6457143,1.6457143,1.6457143,1.6457143,1.5567567,1.6,1.5567567,1.5567567,1.5567567,1.5567567,1.5567567,1.5567567,1.5567567,1.5157895,1.5157895,1.5567567,1.5567567,1.5567567,1.5567567,1.5567567,1.5567567,1.5567567,1.5567567,1.5567567,1.5157895,1.5157895,1.5157895,1.5157895,1.4769231,1.4769231,1.5567567,1.5567567,1.4769231,1.4769231,1.4769231,1.4769231,1.4769231,1.4769231,1.4769231,1.4769231,1.4769231,1.4769231,1.4769231,1.4769231,1.4769231,1.4769231,1.4769231,1.4769231,1.4769231,1.4769231,1.44,1.404878,1.404878,1.404878,1.404878,1.3714286,1.3714286,1.3714286,1.3714286,1.3714286,1.3714286,1.3714286,1.3714286,0.0,1.404878,1.404878,1.404878,0.0,0.0,0.0,0.0,0.0,1.44,1.44,1.404878,0.0,0.0,0.0,1.4769231,1.4769231,1.4769231,1.3714286,1.404878,1.404878,1.3714286,1.3714286,1.3714286,1.404878,1.404878,1.3714286,1.3714286,1.3714286,1.3714286,1.3714286,1.3714286,1.3714286,1.3714286,1.3714286,1.3714286,1.3714286,1.3714286,1.3714286,1.3714286,1.3714286,1.404878,1.404878,1.44,1.44,1.44,1.44,1.44,1.44,1.44,1.44,1.44,1.4769231,1.4769231,1.4769231,1.4769231,1.4769231,1.4769231,1.4769231,1.4769231,1.4769231,1.5157895,1.5157895,1.4769231,1.4769231,1.4769231,1.5157895,1.5157895,1.5157895,1.5157895,1.4769231,1.4769231,1.4769231,1.4769231,1.5157895,1.5157895,1.5567567,1.5157895,1.5157895,1.5157895,1.5567567,1.5157895,1.5157895,1.5157895,1.5157895,1.5157895,1.5157895,0.0,1.5567567,1.5567567,0.0,0.0,1.6,0.0,1.6,1.6,0.0,1.6,0.0,1.6,1.6,1.6,1.6,1.6,1.6,1.6,1.6,1.6,1.6,1.6,1.6457143,1.6457143,1.6,1.6457143,1.6457143,1.6,1.6,1.6,1.6457143,1.6457143,1.6,1.6,1.5567567,1.6,1.6,1.6,1.6,1.6,1.6,1.6,1.5567567,1.5567567,1.5157895,1.6,1.5567567,1.6,1.5567567,1.5567567,1.6,1.5567567,1.5567567,1.5567567,1.5567567,1.5567567,1.5567567,1.5567567,1.5567567,1.5567567,1.6,1.6,1.6457143,1.6457143,1.6457143,1.6,1.6,1.6,1.6,1.6,1.5567567,1.5567567,1.5567567,1.5567567,1.5567567,1.5567567,1.5567567,1.5567567,1.5567567,1.5567567,1.5567567,1.5567567,1.5567567,1.5567567,1.5567567,1.6,1.6,1.5567567,1.5567567,1.6,1.6,1.6,1.6,1.6,1.6,1.6,0.0,0.0,0.0,0.0,0.0,0.0,0.0,0.0,0.0,0.0,0.0,2.2153847,0.0,2.304,1.8580645,0.0
2.2153847,2.2153847,2.2153847,2.2153847,2.2153847,2.2153847,2.2153847,2.2153847,2.2153847,2.2153847,2.2153847,2.2153847,2.2153847,2.2153847,2.2153847,2.2153847,2.2153847,2.2153847,2.2153847,2.2153847,2.2153847,2.2153847,2.2153847,2.2153847,2.304,2.304,2.304,2.2153847,2.304,2.304,2.304,2.304,2.304,2.304,2.304,2.304,2.2153847,2.2153847,2.2153847,2.304,2.304,2.304,2.304,2.304,2.304,2.304,2.304,2.304,2.304,2.304,2.304,2.4,2.304,2.4,2.4,2.4,2.304,2.304,2.304,2.304,2.304,2.304,2.304,2.304,2.304,2.304,2.304,2.304,2.304,2.304,2.304,2.304,2.304,2.304,2.304,2.304,2.304,2.4,2.304,2.304,2.304,2.304,2.304,2.304,2.304,2.304,2.304,2.304,2.304,2.304,2.304,2.304,2.304,2.2153847,2.304,2.304,2.304,2.304,2.304,2.2153847,2.2153847,2.2153847,2.304,2.304,2.304,2.304,2.304,2.304,2.304,2.304,2.304,2.4,2.304,2.304,2.304,2.304,2.304,2.304,2.304,2.304,2.304,2.304,2.304,2.4,2.4,2.304,2.304,2.304,2.304,2.304,2.304,2.304,2.304,2.4,2.4,2.4,2.4,2.4,2.4,2.4,2.4,2.4,2.4,2.4,2.4,2.4,2.4,2.4,2.4,2.4,2.4,2.4,2.4,2.4,2.4,2.4,2.4,2.4,2.4,2.4,2.4,2.4,2.4,2.4,2.4,2.4,2.4,2.4,2.4,2.4,2.304,2.304,2.304,2.304,2.304,2.304,2.4,2.4,2.4,2.4,2.4,1.6457143,1.6457143,1.6457143,1.6457143,1.6457143,1.6457143,1.5567567,1.5567567,1.5567567,1.5567567,1.5567567,1.5567567,1.5567567,1.5567567,1.5157895,1.5157895,1.5567567,1.5567567,1.5567567,1.5567567,1.5567567,1.5567567,1.5157895,1.5157895,1.5567567,1.5567567,1.5157895,1.5157895,1.5157895,1.5157895,1.5157895,1.5567567,1.4769231,1.4769231,1.4769231,1.4769231,1.4769231,1.4769231,1.4769231,1.4769231,1.4769231,1.4769231,1.4769231,1.4769231,1.4769231,1.4769231,1.4769231,1.4769231,1.4769231,1.4769231,1.4769231,1.44,1.404878,1.404878,1.404878,1.404878,1.3714286,1.3714286,1.3714286,1.3714286,1.3714286,1.3714286,1.3714286,0.0,1.404878,1.404878,0.0,1.44,1.44,0.0,0.0,1.5157895,0.0,1.5567567,1.44,0.0,1.44,0.0,0.0,0.0,1.4769231,1.4769231,1.3714286,1.404878,1.404878,1.3714286,1.3714286,1.404878,1.404878,1.404878,1.3714286,1.3714286,1.3714286,1.3714286,1.3714286,1.3714286,1.3714286,1.3714286,1.3714286,1.3714286,1.3714286,1.3714286,1.3714286,1.3714286,1.404878,1.404878,1.44,1.44,1.44,1.44,1.44,1.44,1.44,1.44,1.44,1.44,1.44,1.4769231,1.4769231,1.4769231,1.4769231,1.4769231,1.4769231,1.4769231,1.4769231,1.5157895,1.5157895,1.5157895,1.4769231,1.4769231,1.5157895,1.5157895,1.5157895,1.5157895,1.5157895,1.5157895,1.5157895,1.5157895,1.5157895,1.5157895,1.5567567,1.5567567,1.5157895,1.5157895,1.5567567,1.5567567,1.5567567,1.5157895,1.5157895,1.5157895,1.5157895,0.0,1.5567567,1.5567567,1.5567567,1.5567567,0.0,0.0,0.0,1.6457143,0.0,0.0,0.0,1.6,1.6,1.6457143,1.6,1.6,1.6,1.6,1.6,1.6,1.6,1.6,1.6457143,1.6457143,1.6457143,1.6457143,1.6457143,1.6,1.6,1.6,1.6457143,1.6457143,1.6,1.6,1.5567567,1.6,1.6,1.6,1.6,1.6,1.6,1.6,1.6,1.5567567,1.5567567,1.6,1.5567567,1.5567567,1.5567567,1.5567567,1.5567567,1.5567567,1.5567567,1.5567567,1.5567567,1.5567567,1.5567567,1.5567567,1.5567567,1.5567567,1.6,1.6,1.6457143,1.6,1.6,1.6,1.6,1.6,1.6,1.6,1.5567567,1.5567567,1.5567567,1.5567567,1.5567567,1.5567567,1.5567567,1.5567567,1.5567567,1.5567567,1.5567567,1.5567567,1.5567567,1.5567567,1.5567567,1.5567567,1.5567567,1.5567567,1.5567567,1.6,0.0,1.6,1.6,1.6,1.6,1.6,1.6,0.0,0.0,0.0,0.0,0.0,0.0,0.0,0.0,0.0,0.0,2.2153847,0.0,0.0,0.0,0.0
